# .PCD v0.7 - Point Cloud Data file format
VERSION 0.7
FIELDS x y z intensity ring
SIZE 4 4 4 4 2
TYPE F F F F U
COUNT 1 1 1 1 1
WIDTH 1007
HEIGHT 1
VIEWPOINT 0 0 0 1 0 0 0
POINTS 1007
DATA ascii
-1.4108212 -4.7725334 -0.29004884 1.7179382e+19 6
-1.3976675 -4.7785163 -0.29016709 1.7179382e+19 6
-1.3780569 -4.762229 -0.28893635 1.7179382e+19 6
-1.3647542 -4.7675357 -0.28901914 1.7179382e+19 6
-1.352232 -4.7756295 -0.28927299 1.7179382e+19 6
-1.3358026 -4.769865 -0.28869006 1.7179382e+19 6
-1.3201025 -4.7665186 -0.28825668 1.7179382e+19 6
-1.307884 -4.7757239 -0.28858486 1.7179382e+19 6
-1.2890716 -4.7607012 -0.28745198 1.7179382e+19 6
-1.2799979 -4.7816281 -0.2884922 1.7179382e+19 6
-1.2634023 -4.7745299 -0.28784367 1.7179382e+19 6
-1.2447858 -4.7594519 -0.28671777 1.7179382e+19 6
-1.232102 -4.7668843 -0.28695098 1.7179382e+19 6
-1.2148923 -4.7566895 -0.2861259 1.7179382e+19 6
-1.2021903 -4.7640257 -0.28635815 1.7179382e+19 6
-1.1902013 -4.7743173 -0.28676996 1.7179382e+19 6
-1.1749622 -4.7715802 -0.28640154 1.7179382e+19 6
-1.1651179 -4.7908731 -0.28735733 1.7179382e+19 6
-1.1468654 -4.7755585 -0.28623986 1.7179382e+19 6
-1.1309266 -4.7695241 -0.28568214 1.7179382e+19 6
-1.1155137 -4.7654953 -0.28524762 1.7179382e+19 6
-1.0976934 -4.7508578 -0.28418145 1.7179382e+19 6
-1.087334 -4.7684674 -0.28504664 1.7179382e+19 6
-1.0745957 -4.7758932 -0.28530473 1.7179382e+19 6
-1.0546879 -4.7511396 -0.28364372 1.7179382e+19 6
-1.0447649 -4.7712202 -0.28466207 1.7179382e+19 6
-1.0316769 -4.7771211 -0.28483602 1.7179382e+19 6
-1.0127683 -4.7557721 -0.28338838 1.7179382e+19 6
-1.0008407 -4.7669802 -0.28388363 1.7179382e+19 6
-0.98781741 -4.7731347 -0.28407991 1.7179382e+19 6
-0.97382295 -4.7746253 -0.28400087 1.7179382e+19 6
-0.95920384 -4.7729688 -0.28373715 1.7179382e+19 6
-0.94479281 -4.7722297 -0.28353062 1.7179382e+19 6
-0.93103296 -4.774724 -0.28351867 1.7179382e+19 6
-0.91912347 -4.78685 -0.28408065 1.7179382e+19 6
-0.90547985 -4.7901011 -0.28411797 1.7179382e+19 6
-0.88917345 -4.7790613 -0.28331038 1.7179382e+19 6
-0.87332529 -4.770083 -0.28262815 1.7179382e+19 6
-0.8603996 -4.7769508 -0.2828874 1.7179382e+19 6
-0.8465789 -4.778914 -0.28285837 1.7179382e+19 6
-0.83251786 -4.7794809 -0.28274912 1.7179382e+19 6
-0.81804556 -4.7775831 -0.2824966 1.7179382e+19 6
-0.8034761 -4.7749581 -0.28220367 1.7179382e+19 6
-0.78827703 -4.7683487 -0.28167796 1.7179382e+19 6
-0.77416879 -4.7681346 -0.2815327 1.7179382e+19 6
-0.76138633 -4.7761469 -0.2818754 1.7179382e+19 6
-0.74765509 -4.7783151 -0.28187537 1.7179382e+19 6
-0.73293436 -4.7740383 -0.28149766 1.7179382e+19 6
-0.71702856 -4.7616429 -0.28064409 1.7179382e+19 6
-0.7034381 -4.7643528 -0.28068349 1.7179382e+19 6
-0.68967628 -4.7659073 -0.28065711 1.7179382e+19 6
-0.67810285 -4.7828789 -0.2815406 1.7179382e+19 6
-0.66358662 -4.7792907 -0.28121594 1.7179382e+19 6
-0.64705032 -4.760603 -0.28000575 1.7179382e+19 6
-0.63443637 -4.7705035 -0.2804797 1.7179382e+19 6
-0.61945325 -4.7625532 -0.27990639 1.7179382e+19 6
-0.60808522 -4.7825875 -0.28097999 1.7179382e+19 6
-0.59258503 -4.7702188 -0.28015208 1.7179382e+19 6
-0.57938629 -4.7761445 -0.28040114 1.7179382e+19 6
-0.56587523 -4.7796431 -0.28050986 1.7179382e+19 6
-0.55130845 -4.7740936 -0.28009003 1.7179382e+19 6
-0.53680903 -4.7687726 -0.27968618 1.7179382e+19 6
-0.52476609 -4.7854891 -0.28057697 1.7179382e+19 6
-0.50932389 -4.7711911 -0.2796517 1.7179382e+19 6
-0.4963544 -4.7798228 -0.28007284 1.7179382e+19 6
-0.48331454 -4.7881718 -0.28047949 1.7179382e+19 6
-0.46757391 -4.7693844 -0.27929908 1.7179382e+19 6
-0.45432922 -4.7756042 -0.27958569 1.7179382e+19 6
-0.44045204 -4.7752762 -0.27949125 1.7179382e+19 6
-0.42595497 -4.7679057 -0.27898705 1.7179382e+19 6
-0.41338786 -4.7822866 -0.27975783 1.7179382e+19 6
-0.39905334 -4.7764263 -0.27934676 1.7179382e+19 6
-0.38498187 -4.7733254 -0.27909952 1.7179382e+19 6
-0.37122825 -4.7739983 -0.27907532 1.7179382e+19 6
-0.35776186 -4.7784777 -0.27927592 1.7179382e+19 6
-0.34322885 -4.7684155 -0.278629 1.7179382e+19 6
-0.32950497 -4.7691402 -0.27861488 1.7179382e+19 6
-0.3162671 -4.7771873 -0.27903074 1.7179382e+19 6
-0.30174884 -4.7656631 -0.2783058 1.7179382e+19 6
-0.28882751 -4.7793803 -0.27905723 1.7179382e+19 6
-0.27451488 -4.7702141 -0.27847481 1.7179382e+19 6
-0.26100817 -4.7747397 -0.27869406 1.7179382e+19 6
-0.24724902 -4.7748103 -0.27865556 1.7179382e+19 6
-0.23373063 -4.7797298 -0.27890229 1.7179382e+19 6
-0.21971898 -4.7744622 -0.27855694 1.7179382e+19 6
-0.20572767 -4.7688785 -0.2781955 1.7179382e+19 6
-0.19199523 -4.7688417 -0.27816001 1.7179382e+19 6
-0.17834862 -4.7710099 -0.27825543 1.7179382e+19 6
-0.16473812 -4.7745008 -0.27843028 1.7179382e+19 6
-0.15087852 -4.7706647 -0.27818012 1.7179382e+19 6
-0.13742171 -4.7799845 -0.27869937 1.7179382e+19 6
-0.12379315 -4.7846498 -0.27894953 1.7179382e+19 6
-0.10957825 -4.7648973 -0.27777842 1.7179382e+19 6
-0.096052036 -4.7736349 -0.27827054 1.7179382e+19 6
-0.082318544 -4.7731757 -0.27822882 1.7179382e+19 6
-0.068801112 -4.7874727 -0.27904952 1.7179382e+19 6
-0.055073991 -4.7905812 -0.27922034 1.7179382e+19 6
-0.04114899 -4.7727056 -0.27817041 1.7179382e+19 6
-0.027447494 -4.7757196 -0.27834031 1.7179382e+19 6
-0.013740785 -4.7827926 -0.27874908 1.7179382e+19 6
6.3490147e-06 -4.7852268 -0.27888981 1.7179382e+19 6
0.013758065 -4.7843881 -0.27884206 1.7179382e+19 6
0.027499873 -4.7826252 -0.27874279 1.7179382e+19 6
0.041206755 -4.7779346 -0.27847517 1.7179382e+19 6
0.053130586 -4.6204686 -0.26930526 1.7179382e+19 6
0.066380709 -4.6181979 -0.26918292 1.7179382e+19 6
0.07976263 -4.6242614 -0.26954859 1.7179382e+19 6
0.093007401 -4.6217117 -0.26941445 1.7179382e+19 6
0.1061202 -4.6139951 -0.26898128 1.7179382e+19 6
0.11930738 -4.6108003 -0.26881394 1.7179382e+19 6
0.13283382 -4.6199751 -0.26936999 1.7179382e+19 6
0.1464874 -4.6314316 -0.27006137 1.7179382e+19 6
0.15944023 -4.6205997 -0.26945537 1.7179382e+19 6
0.17249754 -4.6141596 -0.26910761 1.7179382e+19 6
0.186124 -4.6227045 -0.26963606 1.7179382e+19 6
0.19944465 -4.6229501 -0.26968271 1.7179382e+19 6
0.2129859 -4.6278863 -0.27000526 1.7179382e+19 6
0.22680481 -4.6378465 -0.2706233 1.7179382e+19 6
0.23845157 -4.6046796 -0.26872686 1.7179382e+19 6
0.25306487 -4.6292033 -0.27019939 1.7179382e+19 6
0.26664588 -4.6332607 -0.2704798 1.7179382e+19 6
0.27974433 -4.6288724 -0.27026948 1.7179382e+19 6
0.29347 -4.634716 -0.27065879 1.7179382e+19 6
0.30651578 -4.6297078 -0.27041665 1.7179382e+19 6
0.31988299 -4.6296964 -0.27046859 1.7179382e+19 6
0.33200148 -4.6122651 -0.26950485 1.7179382e+19 6
0.34642395 -4.6268768 -0.27041572 1.7179382e+19 6
0.35946172 -4.6225224 -0.27022049 1.7179382e+19 6
0.37378296 -4.6343184 -0.27097178 1.7179382e+19 6
0.38659909 -4.6272087 -0.2706199 1.7179382e+19 6
0.39943567 -4.6207371 -0.27030745 1.7179382e+19 6
0.41280285 -4.6205497 -0.27036479 1.7179382e+19 6
0.42533183 -4.6112127 -0.26988885 1.7179382e+19 6
0.43981284 -4.6228876 -0.27064505 1.7179382e+19 6
0.45316258 -4.6222582 -0.27068332 1.7179382e+19 6
0.46699455 -4.6263671 -0.27100146 1.7179382e+19 6
0.47943282 -4.6167512 -0.27051774 1.7179382e+19 6
0.49425608 -4.6299238 -0.27137172 1.7179382e+19 6
0.50634712 -4.6174083 -0.27072233 1.7179382e+19 6
0.5209918 -4.628149 -0.27143878 1.7179382e+19 6
0.53510255 -4.6336493 -0.27185044 1.7179382e+19 6
0.54903632 -4.6373081 -0.27215657 1.7179382e+19 6
0.56089336 -4.6235967 -0.27144536 1.7179382e+19 6
0.57594228 -4.6361465 -0.27227819 1.7179382e+19 6
0.58859503 -4.6291995 -0.27196842 1.7179382e+19 6
0.60213441 -4.6293044 -0.27207515 1.7179382e+19 6
0.61453456 -4.6207628 -0.27167583 1.7179382e+19 6
0.62811261 -4.6211791 -0.27180532 1.7179382e+19 6
0.64215833 -4.6248698 -0.27212983 1.7179382e+19 6
0.65569049 -4.6247091 -0.27223015 1.7179382e+19 6
0.67162114 -4.6410527 -0.27330473 1.7179382e+19 6
0.68269968 -4.6238079 -0.27240363 1.7179382e+19 6
0.69813299 -4.6360774 -0.27324355 1.7179382e+19 6
0.71035665 -4.6268945 -0.27282155 1.7179382e+19 6
0.72457802 -4.6307473 -0.27317038 1.7179382e+19 6
0.73809034 -4.6299329 -0.27324638 1.7179382e+19 6
0.75294167 -4.6373181 -0.27380881 1.7179382e+19 6
0.76712775 -4.6403389 -0.27411622 1.7179382e+19 6
0.77711815 -4.6182413 -0.27294171 1.7179382e+19 6
0.79247284 -4.6281581 -0.27366129 1.7179382e+19 6
0.80697185 -4.6327486 -0.27406874 1.7179382e+19 6
0.82092714 -4.6340384 -0.2742835 1.7179382e+19 6
0.83527768 -4.637403 -0.2746236 1.7179382e+19 6
0.84803408 -4.6318736 -0.27443936 1.7179382e+19 6
0.86080581 -4.6265249 -0.27426791 1.7179382e+19 6
0.87485874 -4.6280446 -0.27450594 1.7179382e+19 6
0.88772166 -4.6232414 -0.27437127 1.7179382e+19 6
0.90301305 -4.6309614 -0.2749823 1.7179382e+19 6
0.91698551 -4.6317081 -0.27518201 1.7179382e+19 6
0.92983681 -4.6267757 -0.27504662 1.7179382e+19 6
0.94358325 -4.6262984 -0.27517834 1.7179382e+19 6
0.95899618 -4.6338086 -0.27578789 1.7179382e+19 6
0.97027302 -4.621326 -0.27520981 1.7179382e+19 6
0.98884946 -4.6433935 -0.27669209 1.7179382e+19 6
1.0028398 -4.6435332 -0.27687103 1.7179382e+19 6
1.0137777 -4.6296496 -0.27621582 1.7179382e+19 6
1.0268217 -4.6255512 -0.27614623 1.7179382e+19 6
1.0416869 -4.6295776 -0.27656421 1.7179382e+19 6
1.0547403 -4.6254721 -0.27649891 1.7179382e+19 6
1.0717787 -4.6386418 -0.27746919 1.7179382e+19 6
1.084921 -4.634748 -0.27742165 1.7179382e+19 6
1.0976579 -4.6291633 -0.27727509 1.7179382e+19 6
1.1106416 -4.6246686 -0.2771959 1.7179382e+19 6
1.1273376 -4.6354699 -0.27803639 1.7179382e+19 6
1.1374862 -4.6193357 -0.27726364 1.7179382e+19 6
1.1552752 -4.6341643 -0.27835184 1.7179382e+19 6
1.168627 -4.63097 -0.27836058 1.7179382e+19 6
1.1801656 -4.6206727 -0.27794436 1.7179382e+19 6
1.1944896 -4.621315 -0.27818838 1.7179382e+19 6
1.208953 -4.622395 -0.27846143 1.7179382e+19 6
1.2229613 -4.6216493 -0.2786271 1.7179382e+19 6
1.2372307 -4.6218152 -0.27885035 1.7179382e+19 6
1.2522551 -4.6246848 -0.27923951 1.7179382e+19 6
1.2669133 -4.6260719 -0.27954197 1.7179382e+19 6
1.2812394 -4.6261473 -0.2797679 1.7179382e+19 6
1.2952126 -4.6248794 -0.27991518 1.7179382e+19 6
1.3103871 -4.6278005 -0.2803188 1.7179382e+19 6
1.3270447 -4.6357574 -0.28103065 1.7179382e+19 6
1.3450743 -4.6482029 -0.28201833 1.7179382e+19 6
1.3554894 -4.6342669 -0.28140804 1.7179382e+19 6
1.3669772 -4.6241722 -0.28103247 1.7179382e+19 6
1.3811091 -4.6230574 -0.28120482 1.7179382e+19 6
1.3964317 -4.6258278 -0.2816163 1.7179382e+19 6
1.4141802 -4.6364112 -0.28250691 1.7179382e+19 6
1.4301513 -4.6409292 -0.28303149 1.7179382e+19 6
1.4394635 -4.6238823 -0.28224304 1.7179382e+19 6
1.4578643 -4.6359959 -0.28323704 1.7179382e+19 6
1.4719654 -4.6342483 -0.2833876 1.7179382e+19 6
1.4822973 -4.6207023 -0.28281865 1.7179382e+19 6
1.4985769 -4.6256967 -0.2833868 1.7179382e+19 6
1.5108794 -4.6183538 -0.28320181 1.7179382e+19 6
1.5301172 -4.6320634 -0.28431103 1.7179382e+19 6
1.5397667 -4.6166787 -0.2836372 1.7179382e+19 6
1.5601647 -4.6334229 -0.28494024 1.7179382e+19 6
1.5766284 -4.6381936 -0.28551114 1.7179382e+19 6
1.5928477 -4.6420779 -0.28603086 1.7179382e+19 6
1.6040378 -4.6312838 -0.2856487 1.7179382e+19 6
1.6192853 -4.6322117 -0.28599179 1.7179382e+19 6
1.6364808 -4.6385584 -0.28667286 1.7179382e+19 6
1.6449283 -4.6201339 -0.28582522 1.7179382e+19 6
1.6681679 -4.6431284 -0.28754321 1.7179382e+19 6
1.679482 -4.6327295 -0.28719699 1.7179382e+19 6
1.7018751 -4.6527181 -0.28873819 1.7179382e+19 6
1.7094588 -4.6321387 -0.28776482 1.7179382e+19 6
1.7220719 -4.6253424 -0.28764892 1.7179382e+19 6
1.738041 -4.6275134 -0.28809342 1.7179382e+19 6
1.7501112 -4.6192698 -0.28789216 1.7179382e+19 6
1.7714651 -4.6353736 -0.28921199 1.7179382e+19 6
1.7880839 -4.6388311 -0.28974718 1.7179382e+19 6
1.8004205 -4.6311283 -0.28958806 1.7179382e+19 6
2.1982539 -5.6066833 -0.35098395 1.7179382e+19 6
2.218744 -5.6114292 -0.35167882 1.7179382e+19 6
2.2371976 -5.6108823 -0.3520461 1.7179382e+19 6
2.2578928 -5.6158137 -0.35276124 1.7179382e+19 6
2.2681582 -5.5948291 -0.35185111 1.7179382e+19 6
2.2879391 -5.5973611 -0.35242248 1.7179382e+19 6
2.3078833 -5.600141 -0.35301369 1.7179382e+19 6
2.3265424 -5.5996757 -0.35340446 1.7179382e+19 6
2.3448846 -5.5983529 -0.35374489 1.7179382e+19 6
2.3661978 -5.6039805 -0.35452875 1.7179382e+19 6
2.3824337 -5.5974808 -0.35454932 1.7179382e+19 6
2.4029846 -5.6010342 -0.35521039 1.7179382e+19 6
2.4191859 -5.5943637 -0.35522687 1.7179382e+19 6
2.4421654 -5.6032405 -0.35623479 1.7179382e+19 6
2.4657123 -5.613162 -0.35731465 1.7179382e+19 6
2.4902358 -5.6250253 -0.35852399 1.7179382e+19 6
2.5028744 -5.6099572 -0.35802063 1.7179382e+19 6
2.5215697 -5.6084809 -0.3583875 1.7179382e+19 6
2.5408804 -5.6082749 -0.35883951 1.7179382e+19 6
2.5599473 -5.6074266 -0.35925454 1.7179382e+19 6
2.5774562 -5.6030941 -0.35945013 1.7179382e+19 6
2.5998561 -5.6092677 -0.36032405 1.7179382e+19 6
2.6171131 -5.6042237 -0.3604818 1.7179382e+19 6
2.6412637 -5.6137948 -0.36158425 1.7179382e+19 6
2.6513283 -5.5933948 -0.36075968 1.7179382e+19 6
2.6768904 -5.6056366 -0.36204401 1.7179382e+19 6
2.7043221 -5.6214728 -0.36356729 1.7179382e+19 6
2.7165599 -5.6056108 -0.36304492 1.7179382e+19 6
2.7878819 -5.7108984 -0.37038127 1.7179382e+19 6
2.8096054 -5.7136812 -0.37108395 1.7179382e+19 6
2.8270504 -5.7076693 -0.37121972 1.7179382e+19 6
2.8522928 -5.717257 -0.37237495 1.7179382e+19 6
2.8725531 -5.7166753 -0.37287328 1.7179382e+19 6
2.8796601 -5.6899943 -0.37167135 1.7179382e+19 6
2.9146323 -5.7182431 -0.37406224 1.7179382e+19 6
2.9335713 -5.7147422 -0.37438324 1.7179382e+19 6
2.9486935 -5.7037883 -0.37421933 1.7179382e+19 6
2.9679923 -5.7008915 -0.37458745 1.7179382e+19 6
3.0018623 -5.7257094 -0.37678352 1.7179382e+19 6
3.0169878 -5.7145586 -0.37661883 1.7179382e+19 6
3.0364246 -5.7115517 -0.37699428 1.7179382e+19 6
3.053695 -5.7044187 -0.37710127 1.7179382e+19 6
3.0810208 -5.7159185 -0.37844533 1.7179382e+19 6
3.0984964 -5.7089906 -0.37857473 1.7179382e+19 6
3.1176016 -5.705018 -0.37890396 1.7179382e+19 6
3.1390226 -5.7051868 -0.37951282 1.7179382e+19 6
3.163975 -5.7116055 -0.3805432 1.7179382e+19 6
3.190063 -5.7198524 -0.38170198 1.7179382e+19 6
3.2049572 -5.7079291 -0.38151947 1.7179382e+19 6
3.2328176 -5.7189803 -0.38287762 1.7179382e+19 6
3.2524602 -5.7153192 -0.38325682 1.7179382e+19 6
3.2791054 -5.7238064 -0.3844564 1.7179382e+19 6
3.2918172 -5.7078962 -0.38402164 1.7179382e+19 6
3.3191996 -5.7173409 -0.38529739 1.7179382e+19 6
3.3439362 -5.7220092 -0.38625807 1.7179382e+19 6
3.3675187 -5.7245274 -0.38707989 1.7179382e+19 6
3.375598 -5.7007051 -0.38612354 1.7179382e+19 6
3.4022477 -5.7082243 -0.38729358 1.7179382e+19 6
3.4244797 -5.7081547 -0.38795507 1.7179382e+19 6
3.4512262 -5.7154346 -0.38912246 1.7179382e+19 6
3.4639013 -5.6993399 -0.38870293 1.7179382e+19 6
3.4915805 -5.7078528 -0.38996637 1.7179382e+19 6
3.5237036 -5.7233448 -0.39171514 1.7179382e+19 6
3.5441749 -5.7197056 -0.39216167 1.7179382e+19 6
3.564281 -5.7153974 -0.39256707 1.7179382e+19 6
3.59322 -5.7250872 -0.39394036 1.7179382e+19 6
3.6083291 -5.7126274 -0.39379504 1.7179382e+19 6
3.631614 -5.7130561 -0.39454252 1.7179382e+19 6
3.6531053 -5.7105432 -0.39509249 1.7179382e+19 6
3.6803179 -5.7168179 -0.39625683 1.7179382e+19 6
3.6982701 -5.7085862 -0.39642146 1.7179382e+19 6
3.7220216 -5.7092199 -0.39720675 1.7179382e+19 6
3.7197995 -5.6701212 -0.39522874 1.7179382e+19 6
3.735719 -5.6588569 -0.39519039 1.7179382e+19 6
3.7303531 -5.6155567 -0.39291364 1.7179382e+19 6
3.7301624 -5.5804019 -0.39120248 1.7179382e+19 6
3.7262917 -5.5400786 -0.38912493 1.7179382e+19 6
3.7330301 -5.5157962 -0.3881714 1.7179382e+19 6
3.7312334 -5.4791474 -0.38634539 1.7179382e+19 6
3.7302513 -5.4440055 -0.38462189 1.7179382e+19 6
3.7302921 -5.4106464 -0.383021 1.7179382e+19 6
3.721185 -5.3643765 -0.38050115 1.7179382e+19 6
3.7332788 -5.348917 -0.38016415 1.7179382e+19 6
3.7236469 -5.302577 -0.37762973 1.7179382e+19 6
3.733916 -5.2848368 -0.37712911 1.7179382e+19 6
3.7336595 -5.2523746 -0.37557685 1.7179382e+19 6
3.7315052 -5.2175217 -0.37385005 1.7179382e+19 6
3.7296894 -5.1834311 -0.37217394 1.7179382e+19 6
3.7376328 -5.1631026 -0.37148416 1.7179382e+19 6
3.7336981 -5.1265807 -0.36962703 1.7179382e+19 6
3.7297752 -5.0903845 -0.36778873 1.7179382e+19 6
3.7283893 -5.0579352 -0.36621696 1.7179382e+19 6
3.727766 -5.0267744 -0.36473507 1.7179382e+19 6
3.7341104 -5.005197 -0.36394671 1.7179382e+19 6
3.7355204 -4.9771743 -0.3626883 1.7179382e+19 6
3.7354341 -4.9473758 -0.36129779 1.7179382e+19 6
3.7398572 -4.9237404 -0.36035526 1.7179382e+19 6
3.7379019 -4.8919106 -0.35881054 1.7179382e+19 6
3.7405078 -4.8662648 -0.35771656 1.7179382e+19 6
3.7367301 -4.8325391 -0.35602546 1.7179382e+19 6
3.7338259 -4.8002076 -0.35443273 1.7179382e+19 6
3.7349098 -4.7732277 -0.35323182 1.7179382e+19 6
3.7415872 -4.7535458 -0.3525697 1.7179382e+19 6
3.7342327 -4.7162466 -0.35059786 1.7179382e+19 6
3.7350466 -4.6895156 -0.34940735 1.7179382e+19 6
3.7296572 -4.6552286 -0.34764999 1.7179382e+19 6
3.7348301 -4.6343246 -0.34688914 1.7179382e+19 6
3.7360449 -4.6086564 -0.34577018 1.7179382e+19 6
3.7423916 -4.5894561 -0.34513527 1.7179382e+19 6
3.7400219 -4.5597281 -0.34370667 1.7179382e+19 6
3.7283056 -4.5188918 -0.34143484 1.7179382e+19 6
3.735733 -4.5014749 -0.34092873 1.7179382e+19 6
3.7304018 -4.4688511 -0.33926857 1.7179382e+19 6
3.7343318 -4.4475112 -0.338462 1.7179382e+19 6
3.7322195 -4.4191403 -0.33711791 1.7179382e+19 6
3.7414963 -4.4043813 -0.33681098 1.7179382e+19 6
3.7328289 -4.3686671 -0.33489898 1.7179382e+19 6
3.7338293 -4.3444915 -0.33386701 1.7179382e+19 6
3.7431929 -4.3301463 -0.33359003 1.7179382e+19 6
3.7393742 -4.3006806 -0.3321467 1.7179382e+19 6
3.7310789 -4.2663126 -0.33031929 1.7179382e+19 6
3.7434354 -4.2556949 -0.33032894 1.7179382e+19 6
3.7308006 -4.2168288 -0.32814312 1.7179382e+19 6
3.7358172 -4.198123 -0.32752171 1.7179382e+19 6
3.7336907 -4.1715274 -0.32628274 1.7179382e+19 6
3.736608 -4.1507173 -0.32549372 1.7179382e+19 6
3.7366984 -4.1269011 -0.324467 1.7179382e+19 6
3.7373013 -4.1037974 -0.32349378 1.7179382e+19 6
3.7405548 -4.0837297 -0.32275805 1.7179382e+19 6
3.738771 -4.058301 -0.32159629 1.7179382e+19 6
3.7354178 -4.0313473 -0.32030985 1.7179382e+19 6
3.7425892 -4.015872 -0.31993368 1.7179382e+19 6
3.7404151 -3.9904809 -0.31876603 1.7179382e+19 6
3.7426775 -3.9699633 -0.31798506 1.7179382e+19 6
3.7412271 -3.9456418 -0.31689698 1.7179382e+19 6
3.736573 -3.9181163 -0.31554753 1.7179382e+19 6
3.7334476 -3.8923767 -0.31433752 1.7179382e+19 6
3.7333233 -3.8699198 -0.31338924 1.7179382e+19 6
3.7409482 -3.8555834 -0.31309772 1.7179382e+19 6
3.7272675 -3.8194556 -0.31103262 1.7179382e+19 6
3.7357137 -3.8061626 -0.31082323 1.7179382e+19 6
3.7308638 -3.7794297 -0.30951458 1.7179382e+19 6
3.7382903 -3.7652445 -0.30923158 1.7179382e+19 6
3.7416852 -3.7470615 -0.30862021 1.7179382e+19 6
3.7388945 -3.7228041 -0.30750617 1.7179382e+19 6
3.7439198 -3.7064393 -0.30704203 1.7179382e+19 6
3.7265248 -3.6680698 -0.30474955 1.7179382e+19 6
3.7462828 -3.6663771 -0.30550227 1.7179382e+19 6
3.7413416 -3.6405468 -0.30424473 1.7179382e+19 6
3.7435052 -3.6217625 -0.30357289 1.7179382e+19 6
3.7658198 -3.6224542 -0.30453685 1.7179382e+19 6
3.7703965 -3.6060491 -0.30406752 1.7179382e+19 6
3.800132 -3.6136317 -0.30562666 1.7179382e+19 6
3.815907 -3.6078038 -0.30606011 1.7179382e+19 6
3.8482158 -3.6174591 -0.30781627 1.7179382e+19 6
3.8588407 -3.6066105 -0.30783564 1.7179382e+19 6
3.8890691 -3.6139762 -0.30941716 1.7179382e+19 6
3.9140673 -3.6162968 -0.31057775 1.7179382e+19 6
3.9347193 -3.6144698 -0.31139085 1.7179382e+19 6
3.9522746 -3.6097052 -0.31195778 1.7179382e+19 6
3.9838939 -3.617636 -0.31363147 1.7179382e+19 6
3.9950483 -3.606868 -0.31369218 1.7179382e+19 6
4.0309486 -3.6183045 -0.31569314 1.7179382e+19 6
4.0463433 -3.611176 -0.31608462 1.7179382e+19 6
4.0668912 -3.608568 -0.3168782 1.7179382e+19 6
4.092772 -3.6105599 -0.31808484 1.7179382e+19 6
4.1129007 -3.6073484 -0.31884205 1.7179382e+19 6
4.1474581 -3.6166198 -0.32071385 1.7179382e+19 6
4.1574421 -3.604342 -0.32068345 1.7179382e+19 6
4.1896634 -3.6112359 -0.32236686 1.7179382e+19 6
4.2102723 -3.607959 -0.32315332 1.7179382e+19 6
4.2369561 -3.609756 -0.3244037 1.7179382e+19 6
4.2686963 -3.6156743 -0.32603684 1.7179382e+19 6
4.2884202 -3.6112626 -0.32674918 1.7179382e+19 6
4.3232136 -3.6193755 -0.32860619 1.7179382e+19 6
4.3397899 -3.6120875 -0.32907566 1.7179382e+19 6
4.363832 -3.6109166 -0.33011034 1.7179382e+19 6
4.3930573 -3.6138773 -0.331534 1.7179382e+19 6
4.413415 -3.6094043 -0.33228603 1.7179382e+19 6
4.4467645 -3.6153986 -0.33401313 1.7179382e+19 6
4.4754639 -3.6174152 -0.33538651 1.7179382e+19 6
4.5048175 -3.6197834 -0.33680516 1.7179382e+19 6
4.536077 -3.6234946 -0.33836219 1.7179382e+19 6
4.5397825 -3.6051285 -0.33786425 1.7179382e+19 6
4.5768819 -3.6131873 -0.33985099 1.7179382e+19 6
4.6118765 -3.6193449 -0.34167558 1.7179382e+19 6
4.6368723 -3.6174738 -0.34275571 1.7179382e+19 6
4.667407 -3.6197631 -0.3442423 1.7179382e+19 6
4.6887193 -3.6147571 -0.34504646 1.7179382e+19 6
4.7250366 -3.6211507 -0.34695172 1.7179382e+19 6
4.7391119 -3.6103632 -0.34722182 1.7179382e+19 6
4.779242 -3.6192734 -0.34939843 1.7179382e+19 6
4.7927408 -3.607867 -0.34962571 1.7179382e+19 6
4.8301024 -3.6142883 -0.35159189 1.7179382e+19 6
4.8502789 -3.6076858 -0.35230431 1.7179382e+19 6
4.8984566 -3.6216981 -0.35504615 1.7179382e+19 6
4.9280238 -3.6216979 -0.35643324 1.7179382e+19 6
4.9382968 -3.6074333 -0.35642484 1.7179382e+19 6
4.9855618 -3.6200299 -0.35908377 1.7179382e+19 6
4.9991784 -3.6080177 -0.35931605 1.7179382e+19 6
5.0465684 -3.6202047 -0.36197281 1.7179382e+19 6
5.0827484 -3.6240773 -0.36381924 1.7179382e+19 6
5.1120462 -3.6228487 -0.36516947 1.7179382e+19 6
5.1267819 -3.6111999 -0.36547914 1.7179382e+19 6
5.1720304 -3.6208754 -0.36796138 1.7179382e+19 6
5.2092156 -3.6246417 -0.36986417 1.7179382e+19 6
5.2441907 -3.6266515 -0.37160581 1.7179382e+19 6
5.2586131 -3.6143262 -0.3718901 1.7179382e+19 6
5.2989659 -3.6196797 -0.37400654 1.7179382e+19 6
5.3220048 -3.6130266 -0.37489814 1.7179382e+19 6
5.3579679 -3.6149869 -0.37669796 1.7179382e+19 6
5.3929801 -3.616096 -0.37842724 1.7179382e+19 6
5.4267144 -3.6161482 -0.3800635 1.7179382e+19 6
5.4619055 -3.6169715 -0.38179845 1.7179382e+19 6
5.5085473 -3.6251252 -0.38432884 1.7179382e+19 6
5.5337086 -3.6189327 -0.38535699 1.7179382e+19 6
5.5752511 -3.6232653 -0.38752311 1.7179382e+19 6
5.6027837 -3.6182954 -0.38871238 1.7179382e+19 6
5.6476893 -3.6243348 -0.39110351 1.7179382e+19 6
5.6979437 -3.6335053 -0.39385876 1.7179382e+19 6
5.7113214 -3.6189868 -0.39406282 1.7179382e+19 6
5.7685747 -3.6320698 -0.39729118 1.7179382e+19 6
5.7879405 -3.6210735 -0.39790645 1.7179382e+19 6
5.8402991 -3.6305151 -0.40078694 1.7179382e+19 6
5.8559337 -3.6169398 -0.40114474 2.315297e+27 6
7.0301561 -4.3143373 -0.48073024 4.6305941e+27 6
7.0883031 -4.3220239 -0.48385489 4.6305941e+27 6
7.115551 -4.3106313 -0.48486713 4.6305941e+27 6
7.3366866 -4.4158192 -0.49906877 4.6305941e+27 6
7.3828864 -4.4147677 -0.50134617 4.6305941e+27 6
7.4307604 -4.4144497 -0.50373346 4.6305941e+27 6
7.4841905 -4.4171371 -0.50649273 4.6305941e+27 6
7.5289416 -4.4144201 -0.50866044 4.6305941e+27 6
7.5955915 -4.424211 -0.51230216 4.6305941e+27 6
7.6299376 -4.4148946 -0.51376069 4.6305941e+27 6
7.6874595 -4.4187331 -0.51677656 4.6305941e+27 6
7.7428303 -4.421001 -0.51964241 4.6305941e+27 6
7.7890987 -4.4177809 -0.52189326 4.6305941e+27 6
7.8539367 -4.4247675 -0.52538329 4.6305941e+27 6
7.8884544 -4.414392 -0.5268414 4.6305941e+27 6
7.9614959 -4.4252648 -0.53086787 4.6305941e+27 6
8.0015306 -4.4174609 -0.5326885 4.6305941e+27 6
8.0528765 -4.4156547 -0.5352596 4.6305941e+27 6
8.1190405 -4.4216294 -0.53881049 4.6305941e+27 6
8.1717701 -4.4199395 -0.54146451 4.6305941e+27 6
8.24541 -4.429184 -0.54549801 4.6305941e+27 6
8.3014107 -4.4285679 -0.54835856 4.6305941e+27 6
8.354701 -4.4261961 -0.55103606 4.6305941e+27 6
8.3861895 -4.412055 -0.55227417 4.6305941e+27 6
8.364027 -4.3697467 -0.54998529 4.6305941e+27 6
8.3886719 -4.3519754 -0.55078101 4.6305941e+27 6
8.3970366 -4.3257294 -0.55051166 4.6305941e+27 6
8.4597225 -4.3272986 -0.55380356 4.6305941e+27 6
8.5046148 -4.3194666 -0.55592734 4.6305941e+27 6
8.5782242 -4.325881 -0.55992389 4.6305941e+27 6
8.6346807 -4.3232665 -0.56279558 4.6305941e+27 6
8.824688 -4.3867226 -0.57435578 4.6305941e+27 6
8.9056864 -4.3951092 -0.57880294 4.6305941e+27 6
8.9630108 -4.3914084 -0.58170587 4.6305941e+27 6
9.0333014 -4.3936954 -0.58544576 4.6305941e+27 6
9.094739 -4.3912978 -0.58860701 4.6305941e+27 6
9.1641417 -4.3923721 -0.59227926 4.6305941e+27 6
10.599636 -5.0429907 -0.68411571 4.6305941e+27 6
10.604137 -5.0078044 -0.68347442 4.6305941e+27 6
10.610705 -4.9736567 -0.6829735 4.6305941e+27 6
10.607502 -4.9350176 -0.68185151 7.1435577e+31 6
10.603817 -4.896277 -0.68070716 1.4286652e+32 6
10.623029 -4.8681536 -0.68103939 1.4286652e+32 6
10.595304 -4.8186479 -0.67837131 1.4286652e+32 6
10.599744 -4.783946 -0.67777234 1.4286652e+32 6
10.599447 -4.7471886 -0.67687809 1.4286652e+32 6
10.615849 -4.717948 -0.67705679 1.4286652e+32 6
10.603138 -4.675849 -0.67538607 1.4286652e+32 6
10.606848 -4.6411152 -0.67476988 1.4286652e+32 6
10.596696 -4.6004295 -0.67328012 1.4286652e+32 6
10.610292 -4.5701323 -0.67330658 1.4286652e+32 6
10.609576 -4.5337157 -0.67243141 1.4286652e+32 6
10.622542 -4.5031929 -0.67243004 1.4286652e+32 6
10.616405 -4.4646363 -0.67122644 1.4286652e+32 6
10.618753 -4.4297485 -0.67056715 1.4286652e+32 6
10.60854 -4.3897319 -0.66912258 1.4286652e+32 6
10.610104 -4.3547034 -0.66842902 1.4286652e+32 6
10.618629 -4.3225827 -0.6681807 1.4286652e+32 6
10.632367 -4.2925916 -0.668266 1.4286652e+32 6
10.714292 -4.2898927 -0.67263728 1.4286652e+32 6
10.814624 -4.2940388 -0.67815852 1.4286652e+32 6
10.906333 -4.2942038 -0.68313253 1.4286652e+32 6
10.99776 -4.2937317 -0.68808329 1.4286652e+32 6
11.097497 -4.2959528 -0.69354802 1.4286652e+32 6
11.184312 -4.2926364 -0.69819963 1.4286652e+32 6
11.289532 -4.2958322 -0.70399445 1.4286652e+32 6
11.389086 -4.2962794 -0.7094295 1.4286652e+32 6
11.479177 -4.2926159 -0.71426982 1.4286652e+32 6
11.59235 -4.296998 -0.72054029 1.4286652e+32 6
11.710197 -4.3024387 -0.72709358 1.4286652e+32 6
11.802002 -4.2977076 -0.73202378 1.4286652e+32 6
11.902326 -4.2955341 -0.73747754 1.4286652e+32 6
12.019592 -4.2988482 -0.7439748 1.4286652e+32 6
12.131172 -4.2994671 -0.75011325 1.4286652e+32 6
12.266195 -4.3076763 -0.75769347 1.4286652e+32 6
12.36895 -4.3038659 -0.76327342 1.4286652e+32 6
12.484234 -4.303792 -0.7696209 1.4286652e+32 6
12.598918 -4.3028512 -0.77592528 1.4286652e+32 6
12.718632 -4.3029556 -0.78253311 1.4286652e+32 6
12.852708 -4.3071852 -0.79001737 1.4286652e+32 6
12.970541 -4.3052454 -0.79649633 1.4286652e+32 6
13.090519 -4.3033376 -0.80310106 1.4286652e+32 6
13.247263 -4.3127136 -0.81195343 1.4286652e+32 6
13.382256 -4.3141599 -0.81946397 1.4286652e+32 6
13.506839 -4.3115048 -0.82633054 1.4286652e+32 6
13.64918 -4.3137522 -0.83427685 1.4286652e+32 6
13.783846 -4.3127761 -0.84174681 1.4286652e+32 6
13.932596 -4.3153906 -0.8500697 1.4286652e+32 6
14.077203 -4.315876 -0.85813212 1.4286652e+32 6
14.237553 -4.3203073 -0.86714637 1.4286652e+32 6
14.381443 -4.3188667 -0.87515038 1.4286652e+32 6
14.53861 -4.3205471 -0.88395506 1.4286652e+32 6
14.692656 -4.320405 -0.89256245 1.4286652e+32 6
14.857464 -4.3225093 -0.90181589 1.4286652e+32 6
15.020338 -4.3231068 -0.91094398 1.4286652e+32 6
15.185854 -4.3235197 -0.92022467 2.1429748e+32 6
15.298015 -4.3079562 -0.92626715 2.8572842e+32 6
15.310615 -4.2640457 -0.92628407 2.8572842e+32 6
15.294822 -4.2123141 -0.92459238 2.8572842e+32 6
15.316144 -4.1708617 -0.92515278 2.8572842e+32 6
15.344085 -4.1311336 -0.92611945 2.8572842e+32 6
15.347128 -4.0846796 -0.92559069 2.8572842e+32 6
15.355743 -4.0397458 -0.92540616 2.8572842e+32 6
15.375189 -3.9976456 -0.92588174 2.8572842e+32 6
15.382829 -3.9524634 -0.92565387 2.8572842e+32 6
15.408506 -3.9118836 -0.92651856 2.8572842e+32 6
15.412233 -3.8657095 -0.92607069 2.8572842e+32 6
15.413339 -3.8189313 -0.92547381 2.8572842e+32 6
15.415336 -3.7724314 -0.9249388 2.8572842e+32 6
15.444204 -3.7324796 -0.92602342 2.8572842e+32 6
15.450595 -3.6870534 -0.92576736 2.8572842e+32 6
15.467676 -3.6441715 -0.92615944 2.8572842e+32 6
15.478653 -3.5998297 -0.9261933 2.8572842e+32 6
15.480405 -3.5533667 -0.92568314 2.8572842e+32 6
15.495727 -3.5100286 -0.92599225 2.8572842e+32 6
15.509074 -3.4662178 -0.92619067 2.8572842e+32 6
15.512575 -3.4202154 -0.92580885 2.8572842e+32 6
15.511641 -3.3732867 -0.9251706 2.8572842e+32 6
15.531404 -3.3308606 -0.92577446 2.8572842e+32 6
15.540392 -3.2860951 -0.92574346 2.8572842e+32 6
15.561398 -3.2438374 -0.92643547 2.8572842e+32 6
15.560901 -3.1970918 -0.92585498 2.8572842e+32 6
15.570338 -3.1524155 -0.92587358 2.8572842e+32 6
15.580729 -3.1079271 -0.92595649 2.8572842e+32 6
15.589732 -3.0631573 -0.92596442 2.8572842e+32 6
15.595824 -3.0178232 -0.92580724 2.8572842e+32 6
15.600642 -2.9722614 -0.92558229 2.8572842e+32 6
15.615771 -2.9286559 -0.92597669 2.8572842e+32 6
15.615361 -2.8821423 -0.9254573 2.8572842e+32 6
15.626914 -2.8378527 -0.92565471 2.8572842e+32 6
15.63986 -2.793792 -0.92594206 2.8572842e+32 6
15.64177 -2.7477634 -0.92558378 2.8572842e+32 6
15.644798 -2.7019634 -0.92529953 2.8572842e+32 6
15.658333 -2.657975 -0.9256444 2.8572842e+32 6
15.656666 -2.6114159 -0.9250983 2.8572842e+32 6
15.668439 -2.5671132 -0.92535412 2.8572842e+32 6
15.688952 -2.5241909 -0.92613333 2.8572842e+32 6
15.688299 -2.4778471 -0.9256705 2.8572842e+32 6
15.701658 -2.4337213 -0.92604214 2.8572842e+32 6
15.714553 -2.3894873 -0.92639375 2.8572842e+32 6
15.704546 -2.3418026 -0.92540324 2.8572842e+32 6
15.721055 -2.2980926 -0.92598301 2.8572842e+32 6
15.70891 -2.2502198 -0.92488289 2.8572842e+32 6
15.738293 -2.2082832 -0.92623526 2.8572842e+32 6
15.738042 -2.1621401 -0.92585093 2.8572842e+32 6
15.746473 -2.1172028 -0.92598516 2.8572842e+32 6
15.740601 -2.07037 -0.92528605 2.8572842e+32 6
15.762269 -2.0271482 -0.92621344 2.8572842e+32 6
15.760811 -1.9809272 -0.92578936 2.8572842e+32 6
15.762096 -1.9350849 -0.92553431 2.8572842e+32 6
15.771437 -1.8902329 -0.92575991 2.8572842e+32 6
15.777933 -1.8450257 -0.92582619 2.8572842e+32 6
15.796085 -1.8011404 -0.92658371 2.8572842e+32 6
15.788573 -1.754328 -0.92584348 2.8572842e+32 6
15.798855 -1.7095139 -0.92615438 2.8572842e+32 6
15.793528 -1.6630251 -0.92555809 2.8572842e+32 6
15.79209 -1.6169933 -0.92519766 2.8572842e+32 6
15.798127 -1.5717404 -0.92528284 2.8572842e+32 6
15.812564 -1.5272901 -0.92586744 2.8572842e+32 6
15.824449 -1.4825424 -0.92630994 2.8572842e+32 6
15.805318 -1.4349346 -0.92494488 2.8572842e+32 6
15.807267 -1.3893144 -0.92482144 2.8572842e+32 6
15.808934 -1.3436819 -0.92468917 2.8572842e+32 6
15.842399 -1.3006729 -0.92642409 2.8572842e+32 6
15.832424 -1.2540511 -0.92562622 2.8572842e+32 6
15.831081 -1.2081666 -0.92534083 2.8572842e+32 6
15.841288 -1.1631578 -0.92573816 2.8572842e+32 6
15.850385 -1.1180313 -0.9260782 2.8572842e+32 6
15.838193 -1.0714304 -0.92518204 2.8572842e+32 6
15.857028 -1.0269274 -0.9261061 2.8572842e+32 6
15.843488 -0.98032916 -0.92514688 2.8572842e+32 6
15.860104 -0.93560439 -0.92595631 2.8572842e+32 6
15.870199 -0.89043337 -0.92639244 2.8572842e+32 6
15.874068 -0.84488755 -0.92647272 2.8572842e+32 6
15.862594 -0.79856098 -0.92566526 2.8572842e+32 6
15.867942 -0.7531122 -0.92584717 2.8572842e+32 6
15.880849 -0.707982 -0.92647767 2.8572842e+32 6
15.867444 -0.66169196 -0.92558086 2.8572842e+32 6
15.871499 -0.61616796 -0.92571032 2.8572842e+32 6
15.863036 -0.57018083 -0.92511731 2.8572842e+32 6
15.86637 -0.52464193 -0.92522001 2.8572842e+32 6
15.88041 -0.47941568 -0.92595446 2.8572842e+32 6
15.882756 -0.43379721 -0.92601472 2.8572842e+32 6
15.892803 -0.38836062 -0.92653161 2.8572842e+32 6
15.891528 -0.34262854 -0.92639607 2.8572842e+32 6
15.882021 -0.29675564 -0.92578828 2.8572842e+32 6
15.87949 -0.25105262 -0.92559487 2.8572842e+32 6
15.875648 -0.20535134 -0.92533273 2.8572842e+32 6
15.895082 -0.1599097 -0.92643481 2.8572842e+32 6
15.889886 -0.114182 -0.92610902 2.8572842e+32 6
15.876674 -0.068451472 -0.92532367 2.8572842e+32 6
15.889335 -0.022835229 -0.92605394 2.8572842e+32 6
15.892647 0.022839988 -0.92624694 2.8572842e+32 6
15.881564 0.068472564 -0.92560869 2.8572842e+32 6
15.878078 0.11409715 -0.92542082 2.8572842e+32 6
15.888252 0.15984099 -0.92603672 2.8572842e+32 6
15.90176 0.2056891 -0.92685467 2.8572842e+32 6
15.894547 0.25129068 -0.92647254 2.8572842e+32 6
15.864139 0.29642153 -0.92474592 2.8572842e+32 6
15.855733 0.34185678 -0.92430937 2.8572842e+32 6
15.889972 0.38829145 -0.92636657 2.8572842e+32 6
15.891085 0.43402472 -0.92650038 2.8572842e+32 6
15.883731 0.47951591 -0.92614812 2.8572842e+32 6
15.867083 0.52466547 -0.9252615 2.8572842e+32 6
15.878829 0.57074845 -0.92603827 2.8572842e+32 6
15.869987 0.61610925 -0.92562217 2.8572842e+32 6
15.877698 0.66211957 -0.92617899 2.8572842e+32 6
15.864285 0.70724362 -0.92551142 2.8572842e+32 6
15.85805 0.75264269 -0.92527002 2.8572842e+32 6
15.864284 0.79864603 -0.92576385 2.8572842e+32 6
15.857096 0.84398419 -0.92548215 2.8572842e+32 6
15.862144 0.88998145 -0.92592227 2.8572842e+32 6
15.865656 0.93593186 -0.92628044 2.8572842e+32 6
15.848788 0.98065716 -0.9254564 2.8572842e+32 6
15.852518 1.0266353 -0.9258427 2.8572842e+32 6
15.867948 1.0734434 -0.92692024 2.8572842e+32 6
15.842875 1.1175016 -0.92563945 2.8572842e+32 6
15.843607 1.1633282 -0.9258737 2.8572842e+32 6
15.823166 1.2075624 -0.92487818 2.8572842e+32 6
15.840824 1.2547164 -0.9261173 2.8572842e+32 6
15.837361 1.3002594 -0.92612946 2.8572842e+32 6
15.821959 1.3447891 -0.92545104 2.8572842e+32 6
15.822351 1.3906401 -0.92570394 2.8572842e+32 6
15.826798 1.4368848 -0.92620194 2.8572842e+32 6
15.818307 1.481967 -0.92595047 2.8572842e+32 6
15.805416 1.5265996 -0.92544889 2.8572842e+32 6
15.798631 1.5717906 -0.92531234 2.8572842e+32 6
15.813818 1.619218 -0.92647058 2.8572842e+32 6
15.805689 1.6643057 -0.92627078 2.8572842e+32 6
15.797653 1.7093838 -0.92608392 2.8572842e+32 6
15.785024 1.7539335 -0.92563528 2.8572842e+32 6
15.766954 1.7978188 -0.9248749 2.8572842e+32 6
15.797405 1.8473027 -0.92696875 2.8572842e+32 6
15.775792 1.8907549 -0.92601562 2.8572842e+32 6
15.769436 1.935986 -0.92596531 2.8572842e+32 6
15.764407 1.9813793 -0.9260006 2.8572842e+32 6
15.762216 2.0271413 -0.92621028 2.8572842e+32 6
15.757719 2.0726213 -0.9262923 2.8572842e+32 6
15.74902 2.1175449 -0.92613488 2.8572842e+32 6
15.739049 2.1622787 -0.92591017 2.8572842e+32 6
15.720901 2.2058427 -0.92521173 2.8572842e+32 6
15.732302 2.2535706 -0.92626011 2.8572842e+32 6
15.71536 2.29726 -0.92564756 2.8572842e+32 6
15.697141 2.3406985 -0.92496687 2.8572842e+32 6
15.70025 2.3873122 -0.92555058 2.8572842e+32 6
15.691374 2.4321272 -0.92543566 2.8572842e+32 6
15.699918 2.4796824 -0.92635608 2.8572842e+32 6
15.670198 2.5211737 -0.92502624 2.8572842e+32 6
15.66211 2.5660765 -0.9249804 2.8572842e+32 6
15.661433 2.6122112 -0.92537999 2.8572842e+32 6
15.655534 2.6574998 -0.92547894 2.8572842e+32 6
15.656298 2.7039495 -0.92597973 2.8572842e+32 6
15.640168 2.7474821 -0.92548895 2.8572842e+32 6
15.638079 2.7934737 -0.92583662 2.8572842e+32 6
15.63204 2.8387837 -0.92595834 2.8572842e+32 6
15.626508 2.8841996 -0.9261179 2.8572842e+32 6
15.616442 2.9287815 -0.92601639 2.8572842e+32 6
15.597919 2.9717426 -0.92542076 2.8572842e+32 6
15.596642 3.0179813 -0.92585582 2.8572842e+32 6
15.584544 3.0621378 -0.92565626 2.8572842e+32 6
15.586437 3.1090658 -0.9262957 2.8572842e+32 6
15.569248 3.1521947 -0.92580879 2.8572842e+32 6
15.559655 3.196836 -0.92578089 2.8572842e+32 6
15.560897 3.2437329 -0.92640567 2.8572842e+32 6
15.532766 3.2844827 -0.92528915 2.8572842e+32 6
15.532353 3.3310645 -0.92583108 2.8572842e+32 6
15.513317 3.3736513 -0.92527062 2.8572842e+32 6
15.521074 3.4220893 -0.92631608 2.8572842e+32 6
15.508185 3.4660189 -0.92613757 2.8572842e+32 6
15.494658 3.5097866 -0.92592841 2.8572842e+32 6
15.47858 3.5529478 -0.925574 2.8572842e+32 6
15.472944 3.5985019 -0.9258517 2.8572842e+32 6
15.467448 3.6441176 -0.92614573 2.8572842e+32 6
15.449437 3.6867771 -0.92569798 2.8572842e+32 6
15.445669 3.7328336 -0.92611128 2.8572842e+32 6
15.429832 3.7759788 -0.92580855 2.8572842e+32 6
15.417702 3.8200123 -0.92573577 2.8572842e+32 6
15.404039 3.8636546 -0.92557842 2.8572842e+32 6
15.40383 3.9106963 -0.92623734 2.8572842e+32 6
15.391889 3.9547913 -0.92619902 2.8572842e+32 6
15.381641 3.9993234 -0.92627037 2.8572842e+32 6
15.354913 4.0395269 -0.92535609 2.8572842e+32 6
15.348821 4.0851302 -0.9256928 2.8572842e+32 6
15.345992 4.1316471 -0.92623454 2.8572842e+32 6
15.315218 4.1706095 -0.92509681 2.8572842e+32 6
15.32376 4.220284 -0.92634171 2.8572842e+32 6
15.300186 4.2611418 -0.92565322 2.8572842e+32 6
15.298074 4.3079729 -0.92627072 2.8572842e+32 6
15.289874 4.3531351 -0.92652798 2.1429632e+32 6
15.231215 4.3838005 -0.92373312 1.4286421e+32 6
15.072114 4.3849578 -0.91484469 1.4286421e+32 6
14.977657 4.4042101 -0.90987593 1.4286421e+32 6
14.971406 4.4491649 -0.91026932 1.4286421e+32 6
14.986508 4.5005727 -0.91197032 1.4286421e+32 6
14.985759 4.5473461 -0.91271627 1.4286421e+32 6
14.97951 4.5925112 -0.91313589 1.4286421e+32 6
14.980256 4.6398859 -0.91399056 1.4286421e+32 6
14.977005 4.6860991 -0.91461027 1.4286421e+32 6
14.976273 4.7331729 -0.91539252 1.4286421e+32 6
14.828482 4.7333856 -0.90718699 1.4286421e+32 6
14.689281 4.7355175 -0.89949983 1.4286421e+32 6
14.553161 4.7378554 -0.89199471 1.4286421e+32 6
14.433258 4.7447453 -0.88547784 1.4286421e+32 6
14.278728 4.7394652 -0.87682962 1.4286421e+32 6
14.145027 4.7402658 -0.86945236 1.4286421e+32 6
14.014399 4.7413383 -0.86225712 1.4286421e+32 6
13.884805 4.7420144 -0.85511875 1.4286421e+32 6
13.758711 4.7431526 -0.84818918 1.4286421e+32 6
13.626992 4.7416105 -0.84090573 1.4286421e+32 6
13.521115 4.7483826 -0.83521098 1.4286421e+32 6
13.390966 4.7459564 -0.82801074 1.4286421e+32 6
13.27202 4.7467833 -0.82149613 1.4286421e+32 6
13.15465 4.7474961 -0.81507254 1.4286421e+32 6
13.035028 4.7467151 -0.80850261 1.4286421e+32 6
12.937114 4.7532196 -0.80327356 1.4286421e+32 6
11.89702 4.4099317 -0.73947752 1.4286421e+32 6
11.790344 4.4089761 -0.73363155 1.4286421e+32 6
11.679021 4.4056516 -0.72748965 1.4286421e+32 6
11.579814 4.4062891 -0.72209591 1.4286421e+32 6
11.482659 4.4071445 -0.71682447 1.4286421e+32 6
11.387801 4.4083323 -0.71169084 1.4286421e+32 6
11.304261 4.4133954 -0.70725977 1.4286421e+32 6
11.194092 4.4075041 -0.70115668 1.4286421e+32 6
11.185698 4.4413767 -0.70142764 1.4286421e+32 6
11.172759 4.4734583 -0.70141965 1.4286421e+32 6
11.182769 4.5148048 -0.70285988 1.4286421e+32 6
11.180894 4.5514665 -0.70356137 1.4286421e+32 6
11.190246 4.5928111 -0.70497757 1.4286421e+32 6
11.181426 4.6267881 -0.70525688 1.4286421e+32 6
11.17615 4.6622739 -0.70576638 1.4286421e+32 6
11.184789 4.7036653 -0.70716274 1.4286421e+32 6
11.178835 4.7390213 -0.70764464 1.4286421e+32 6
11.169691 4.7730656 -0.70793128 1.4286421e+32 6
11.175961 4.8137803 -0.70920265 1.4286421e+32 6
11.164827 4.8470764 -0.70937735 1.4286421e+32 6
11.175941 4.8901267 -0.71097362 1.4286421e+32 6
11.173695 4.9274573 -0.71172875 1.4286421e+32 6
11.179809 4.968585 -0.71302485 1.4286421e+32 6
11.181419 5.0078368 -0.71404266 1.4286421e+32 6
11.174459 5.0433302 -0.71452099 1.4286421e+32 6
11.17242 5.0811143 -0.71532142 1.4286421e+32 6
11.186038 5.1261606 -0.71713382 1.4286421e+32 6
11.191928 5.1678357 -0.71846068 1.4286421e+32 6
11.18368 5.2030773 -0.71888828 1.4286421e+32 6
11.176684 5.2389541 -0.71940362 1.4286421e+32 6
11.176017 5.2778749 -0.72033411 1.4286421e+32 6
11.189671 5.3237114 -0.72219741 1.4286421e+32 6
11.185182 5.3610563 -0.7228992 1.4286421e+32 6
11.060084 5.3402438 -0.71580321 1.4286421e+32 6
11.001828 5.3511648 -0.71302545 1.4286421e+32 6
11.030537 5.4043884 -0.71588981 1.4286421e+32 6
11.006573 5.4319329 -0.71534485 1.4286421e+32 6
11.177818 5.5564561 -0.7275095 1.4286421e+32 6
11.160747 5.5880327 -0.72744077 1.4286421e+32 6
11.066035 5.5804505 -0.72231013 1.4286421e+32 6
10.99041 5.5819941 -0.71841812 1.4286421e+32 6
10.940724 5.5963755 -0.71621883 1.4286421e+32 6
10.945122 5.6383743 -0.71756464 1.4286421e+32 6
10.9432 5.6772442 -0.7185055 1.4286421e+32 6
10.943186 5.717216 -0.71958053 1.4286421e+32 6
10.937207 5.7541699 -0.720272 1.4286421e+32 6
10.936493 5.7939906 -0.72131866 1.4286421e+32 6
10.893292 5.8112631 -0.71956807 1.4286421e+32 6
10.825941 5.8153672 -0.71622032 1.4286421e+32 6
10.733725 5.8056464 -0.7112205 1.4286421e+32 6
10.65834 5.8045325 -0.70732808 1.4286421e+32 6
10.587052 5.8052258 -0.70370156 1.4286421e+32 6
10.523278 5.8096604 -0.70056969 1.4286421e+32 6
10.459511 5.813745 -0.69743407 1.4286421e+32 6
9.9897213 5.5902643 -0.66717738 1.4286421e+32 6
9.9203815 5.5889654 -0.66361654 1.4286421e+32 6
9.8475571 5.5852866 -0.65981621 1.4286421e+32 6
9.7937393 5.5920286 -0.6572845 1.4286421e+32 6
9.7333813 5.5947242 -0.65431023 1.4286421e+32 6
9.6915121 5.6077785 -0.65257645 1.4286421e+32 6
9.68083 5.6388016 -0.65294582 1.4286421e+32 6
9.5314474 5.5885429 -0.64395112 1.4286421e+32 6
9.4785576 5.5942039 -0.64146155 1.4286421e+32 6
9.4300528 5.6021852 -0.63926607 1.4286421e+32 6
9.3601055 5.5970917 -0.63561231 1.4286421e+32 6
9.3053331 5.6007118 -0.63298345 7.1432105e+31 6
9.2388048 5.5969071 -0.62954962 1.117681e-37 6
9.1852779 5.6006331 -0.62699652 1.117681e-37 6
9.1303692 5.6032166 -0.62434518 1.117681e-37 6
9.0618296 5.597074 -0.62075591 1.117681e-37 6
9.0022993 5.5961146 -0.61777723 1.117681e-37 6
8.9548302 5.6023555 -0.61562222 1.117681e-37 6
8.8977613 5.6023006 -0.61280334 1.117681e-37 6
8.8286486 5.5942855 -0.60914832 1.117681e-37 6
8.7865343 5.6030598 -0.6073513 1.117681e-37 6
8.7234421 5.5981607 -0.60409987 1.117681e-37 6
8.6763811 5.6032343 -0.60195374 1.117681e-37 6
8.6163616 5.5996332 -0.59890383 1.117681e-37 6
8.5713482 5.6054873 -0.59689248 1.117681e-37 6
8.5108776 5.6009316 -0.59380007 1.117681e-37 6
8.4649858 5.6056652 -0.59171993 1.117681e-37 6
8.4167051 5.6085601 -0.58946943 1.117681e-37 6
8.3578043 5.6040668 -0.58646995 1.117681e-37 6
8.3018818 5.6012273 -0.58367318 1.117681e-37 6
8.2664156 5.6119413 -0.58231133 1.117681e-37 6
8.2073183 5.6063509 -0.57928109 1.117681e-37 6
8.1550322 5.6050801 -0.57672542 1.117681e-37 6
8.1068001 5.6063061 -0.57445163 1.117681e-37 6
8.0604353 5.6085587 -0.57230616 1.117681e-37 6
8.0200796 5.6147594 -0.5705843 1.117681e-37 6
7.9997406 5.6348534 -0.57028723 1.117681e-37 6
7.9918084 5.6637034 -0.57087994 1.117681e-37 6
7.9683385 5.6815467 -0.57036757 1.117681e-37 6
7.9453874 5.6997008 -0.56989503 1.117681e-37 6
7.9321151 5.7247825 -0.57012093 1.117681e-37 6
7.7216101 5.6066813 -0.55614686 1.117681e-37 6
7.6684113 5.6017861 -0.55347264 1.117681e-37 6
7.6316013 5.6086082 -0.5519771 1.117681e-37 6
7.5884089 5.610528 -0.55001718 1.117681e-37 6
7.5435815 5.610991 -0.54793477 1.117681e-37 6
7.4963069 5.6093669 -0.54566979 1.117681e-37 6
7.4514046 5.6092486 -0.5435726 1.117681e-37 6
7.4276762 5.6249065 -0.54301882 1.117681e-37 6
7.4278893 5.6587348 -0.54422122 1.117681e-37 6
7.4360881 5.6988335 -0.54601979 1.117681e-37 6
7.4242215 5.7236862 -0.54635417 1.117681e-37 6
7.4322562 5.7640157 -0.5481624 1.117681e-37 6
7.431901 5.7980266 -0.54936308 1.117681e-37 6
7.4423151 5.8406391 -0.55137157 1.117681e-37 6
7.429193 5.8649244 -0.55164605 1.117681e-37 6
7.3715944 5.8539248 -0.54861623 1.117681e-37 6
7.3376579 5.861445 -0.54734218 1.117681e-37 6
7.2880278 5.8561931 -0.54489338 1.117681e-37 6
7.2358222 5.8485494 -0.54224479 1.117681e-37 6
7.1986122 5.8527622 -0.5407148 1.117681e-37 6
7.1694155 5.8633327 -0.53978533 1.117681e-37 6
7.1287718 5.8643689 -0.53799218 1.117681e-37 6
7.0787387 5.8574061 -0.53548461 1.117681e-37 6
7.0483465 5.8664694 -0.53445888 1.117681e-37 6
6.9933419 5.8547955 -0.53156185 1.117681e-37 6
6.9618821 5.8625751 -0.53044927 1.117681e-37 6
6.929213 5.8691874 -0.52924329 1.117681e-37 6
6.8705068 5.8534603 -0.52604222 1.117681e-37 6
6.8426561 5.863759 -0.5251981 1.117681e-37 6
6.8062301 5.8665576 -0.52369434 1.117681e-37 6
6.7700644 5.8693852 -0.52220756 1.117681e-37 6
6.7303224 5.8688998 -0.52044106 1.117681e-37 6
6.6849895 5.8632793 -0.51823664 1.117681e-37 6
6.6549559 5.8708663 -0.51721436 1.117681e-37 6
6.6088963 5.8640985 -0.51494253 1.117681e-37 6
6.5775642 5.8701744 -0.51381373 1.117681e-37 6
6.5333042 5.8644967 -0.51167101 1.117681e-37 6
6.4943962 5.8633661 -0.50994158 1.117681e-37 6
6.460474 5.8665328 -0.50859994 8.3826078e-38 6
6.1459637 5.6132531 -0.48510829 5.5884052e-38 6
6.1176138 5.6196966 -0.48414356 2.7942026e-38 6
6.0492311 5.5890241 -0.48000112 0 6
6.0061083 5.5812664 -0.47785032 0 6
5.9769344 5.586257 -0.47680476 2.7942026e-38 6
5.9625244 5.6049843 -0.47693843 8.3826078e-38 6
5.9466925 5.622385 -0.47696272 1.117681e-37 6
5.9070382 5.617137 -0.47507519 1.117681e-37 6
5.8761129 5.6199794 -0.47388518 1.117681e-37 6
5.8390398 5.6167459 -0.47219542 5.5884052e-38 6
5.8121672 5.6231494 -0.47132736 0 6
5.7764187 5.6207967 -0.46973655 0 6
5.7570968 5.6343017 -0.46948031 0 6
5.7175736 5.6278868 -0.46757451 0 6
5.6881847 5.6312399 -0.46649283 0 6
5.6188903 5.5947099 -0.46212685 0 6
5.6047878 5.6128411 -0.4622919 0 6
5.5853534 5.6256256 -0.46202073 0 6
5.5587487 5.6311088 -0.46115693 0 6
5.5323367 5.6366668 -0.46030796 0 6
5.4958773 5.6318092 -0.45861939 0 6
5.4532404 5.6203461 -0.45640761 0 6
5.4351377 5.6340008 -0.45624593 0 6
5.4005628 5.6304593 -0.45470023 0 6
5.3712707 5.6322365 -0.4535951 0 6
5.333806 5.6252365 -0.45179483 0 6
5.3077064 5.6300335 -0.45095292 0 6
5.278131 5.6310005 -0.4498134 0 6
5.2500014 5.6333551 -0.44879422 0 6
5.2163906 5.6296458 -0.44730237 0 6
5.1871328 5.6304455 -0.44617942 0 6
5.1589899 5.6322985 -0.44514936 0 6
5.1311564 5.6343403 -0.44414324 0 6
5.1038308 5.636795 -0.44317853 0 6
5.0735135 5.6357851 -0.4419508 0 6
5.0406623 5.631763 -0.4404974 0 6
5.021975 5.6434417 -0.44028002 0 6
4.9812312 5.6301594 -0.43812495 0 6
4.9558625 5.6340332 -0.43731615 0 6
4.9195113 5.6252289 -0.43553337 0 6
4.9025574 5.6384659 -0.43546543 0 6
4.8712406 5.635078 -0.43412066 0 6
4.8435664 5.6357245 -0.43309614 0 6
4.8123012 5.6320133 -0.43174621 0 6
4.7835665 5.6310759 -0.43061855 0 6
4.7549391 5.6300931 -0.42949647 0 6
4.7329874 5.6368895 -0.42897537 0 6
4.7061343 5.6377335 -0.42800844 0 6
4.6737895 5.6318121 -0.42653725 0 6
4.6376195 5.621026 -0.42470899 0 6
4.6268106 5.6408753 -0.42520219 0 6
4.5926414 5.6321545 -0.42354801 0 6
4.564404 5.6304917 -0.42243466 0 6
4.5363674 5.6289034 -0.42133549 0 6
4.5185866 5.6399431 -0.42118794 0 6
4.4892268 5.6364217 -0.4199596 0 6
4.4677272 5.642633 -0.41946387 0 6
4.4379196 5.6382098 -0.41818509 0 6
4.40661 5.6316633 -0.41675839 0 6
4.3830819 5.634891 -0.41606322 0 6
4.3638592 5.6435757 -0.41577661 0 6
4.3387356 5.6445374 -0.41492698 0 6
4.3087416 5.6389866 -0.41360688 0 6
4.2740545 5.6270428 -0.41182804 0 6
4.257555 5.638896 -0.41179824 0 6
4.2287645 5.6343684 -0.41057825 0 6
4.2083492 5.6408658 -0.41016859 0 6
4.1698279 5.6228805 -0.40798762 0 6
4.1509142 5.6311331 -0.40771905 0 6
4.1243496 5.6288986 -0.40669724 0 6
4.1091814 5.6421409 -0.40679899 0 6
4.0859303 5.6442351 -0.40610155 0 6
4.054626 5.6350198 -0.40459833 0 6
4.029171 5.633729 -0.40367243 0 6
4.0083532 5.638804 -0.40320888 0 6
3.9879062 5.6443248 -0.40278235 0 6
3.9609985 5.6405721 -0.40170047 0 6
3.9311266 5.6323867 -0.4003112 0 6
3.9117687 5.6391182 -0.39998886 0 6
3.8815346 5.6300178 -0.39855036 0 6
3.8599203 5.6332469 -0.39799193 0 6
3.8433361 5.643765 -0.39795291 0 6
3.8197389 5.6439142 -0.39718765 0 6
3.790422 5.6354246 -0.39582184 0 6
3.7680192 5.6370368 -0.39517274 0 6
3.7464168 5.6397386 -0.39460561 0 6
3.7189023 5.6333828 -0.3934114 0 6
3.6989515 5.6383424 -0.39301366 0 6
3.6827307 5.648952 -0.39301372 0 6
3.6673973 5.6609311 -0.39311215 0 6
3.6292815 5.6375403 -0.39076179 0 6
3.6042688 5.634202 -0.38981071 0 6
3.5817649 5.6346359 -0.38912684 0 6
3.565959 5.6455479 -0.38917097 0 6
3.5374355 5.6362052 -0.38782448 0 6
3.5223324 5.6481318 -0.3879469 0 6
3.4960039 5.6419659 -0.38683155 0 6
3.4745193 5.6434579 -0.38624755 0 6
3.4516375 5.6425562 -0.38550523 0 6
3.4310684 5.6453185 -0.38501859 0 6
3.4032755 5.636025 -0.38371605 0 6
3.3898962 5.6505084 -0.38403714 0 6
3.3677664 5.650372 -0.3833684 0 6
