# .PCD v0.7 - Point Cloud Data file format
VERSION 0.7
FIELDS x y z intensity ring
SIZE 4 4 4 4 2
TYPE F F F F U
COUNT 1 1 1 1 1
WIDTH 1037
HEIGHT 1
VIEWPOINT 0 0 0 1 0 0 0
POINTS 1037
DATA ascii
3.1713836 -4.5999708 2.4103518 1.2884537e+19 26
3.9364281 5.744904 3.0043473 0 26
3.9100204 5.7416878 2.9967759 0 26
3.8907783 5.7488794 2.9946802 0 26
3.8638194 5.7445488 2.9866266 0 26
3.8362472 5.7391076 2.9780526 0 26
3.8121893 5.73875 2.9721692 0 26
3.7931106 5.7457933 2.9701581 0 26
3.6645324 5.5858769 2.8820362 0 26
3.6429124 5.5878744 2.8776526 0 26
3.6219985 5.5908546 2.8738143 0 26
3.6007431 5.5932102 2.8696933 0 26
3.5726945 5.5848451 2.8601208 0 26
3.5514758 5.5869865 2.855978 0 26
3.5307317 5.589777 2.852205 0 26
3.5083354 5.5898399 2.84708 0 26
3.489217 5.5950308 2.844604 0 26
3.4670115 5.5951772 2.8396001 0 26
3.4422536 5.5910506 2.832473 0 26
3.4166772 5.5854049 2.824626 0 26
3.3958752 5.5874133 2.8206937 0 26
3.3759961 5.5908489 2.817518 0 26
3.3540597 5.5907736 2.8126101 0 26
3.3316762 5.5898204 2.8073013 0 26
3.3143144 5.5972095 2.8062165 0 26
3.2826481 5.5802541 2.7929735 0 26
3.1637738 5.413722 2.70506 0 26
3.13205 5.3949747 2.6911831 0 26
3.1109529 5.3942833 2.6863668 0 26
3.086889 5.3882852 2.6789501 0 26
3.0733001 5.4004941 2.6806171 0 26
3.0472243 5.3906584 2.6713765 0 26
3.0336361 5.4028115 2.6730671 0 26
3.0102363 5.3974195 2.6661074 0 26
2.9956665 5.4077754 2.6669588 0 26
2.9753947 5.4077926 2.6627383 0 26
2.9524138 5.4027343 2.6560585 0 26
2.9335589 5.4050927 2.6530616 0 26
2.9086661 5.3961654 2.6445653 0 26
2.8965621 5.4108887 2.6476898 0 26
2.8670824 5.3930163 2.634901 0 26
2.8500154 5.3982916 2.6334653 0 26
2.8352723 5.407958 2.6341944 0 26
2.8143117 5.4057035 2.6291451 0 26
2.7965331 5.4094577 2.6270509 0 26
2.7713714 5.3987679 2.6179802 0 26
2.7596619 5.4142056 2.6216087 0 26
2.7523742 5.4384866 2.6295245 0 26
2.7308314 5.4346342 2.6238558 0 26
2.7200942 5.4522719 2.6285858 0 26
2.6909554 5.4329004 2.6155069 0 26
2.6809316 5.4520073 2.6209848 0 26
2.6561041 5.4409552 2.6119907 0 26
2.6377788 5.4430461 2.609344 0 26
2.6240737 5.4546604 2.6112854 0 26
2.5950344 5.4342237 2.5979202 0 26
2.5821936 5.4475446 2.6007295 0 26
2.5630174 5.4474888 2.5971751 0 26
2.5403991 5.43995 2.5900888 0 26
2.5179923 5.4326434 2.5831535 0 26
2.5021589 5.4394064 2.5829389 0 26
2.484828 5.4428821 2.5811872 0 26
2.4687402 5.4490457 2.5807343 0 26
2.4503369 5.4500451 2.5778613 0 26
2.4254944 5.4365172 2.5681546 0 26
2.4096062 5.4428968 2.5678861 0 26
2.3926475 5.4468307 2.5664868 0 26
2.3552949 5.4039278 2.543071 0 26
2.3386726 5.4081769 2.5418968 0 26
2.3224378 5.41329 2.541152 0 26
2.3106184 5.4287524 2.5452824 0 26
2.3032312 5.454854 2.5544057 0 26
2.2852199 5.4559054 2.5518117 0 26
2.2687483 5.4605727 2.5509341 0 26
2.2452595 5.4481826 2.5421207 0 26
2.2246661 5.4425659 2.5365059 0 26
2.2066407 5.4430852 2.5337813 0 26
2.19432 5.4576955 2.5376363 0 26
2.1689496 5.4397163 2.5263674 0 26
2.1539893 5.4476585 2.5271702 0 26
2.135098 5.4456034 2.5233593 0 26
2.1157284 5.4421778 2.518944 0 26
2.1009593 5.4505253 2.5200019 0 26
2.0800772 5.4429159 2.5137093 0 26
2.0665209 5.4544063 2.5162623 0 26
2.045682 5.4466033 2.5099399 0 26
2.0322049 5.4583335 2.5126433 0 26
2.0096071 5.4454536 2.5040448 0 26
1.9941298 5.4517069 2.5042744 0 26
1.9784651 5.4574523 2.5042911 0 26
1.9582446 5.4505191 2.4985163 0 26
1.9381206 5.4436274 2.4927933 0 26
1.9130845 5.4225836 2.4806285 0 26
1.8963217 5.424716 2.4791002 0 26
1.8769521 5.4192605 2.4741313 0 26
1.8703755 5.4508843 2.4861042 0 26
1.84429 5.425612 2.4721498 0 26
1.8349706 5.4495497 2.4806435 0 26
1.8714132 5.6110539 2.5517013 0 26
1.8523335 5.6074963 2.547652 0 26
1.8311919 5.5974631 2.5406919 0 26
1.8133041 5.5971732 2.5381839 0 26
1.7959906 5.5985651 2.5364637 0 26
1.7783012 5.5986977 2.5341976 0 26
1.7656122 5.6146317 2.5391023 0 26
1.7469797 5.6116934 2.5354924 0 26
1.7281921 5.6080894 2.5316093 0 26
1.7107842 5.6088319 2.5297141 0 26
1.690984 5.601563 2.5242331 0 26
1.6699622 5.5899501 2.5168266 0 26
1.6583674 5.6098795 2.523643 0 26
1.6407247 5.6094546 2.5213201 0 26
1.6210691 5.601964 2.5158484 0 26
1.6056449 5.6089902 2.5169208 0 26
1.584392 5.5954838 2.5088065 0 26
1.5692317 5.603333 2.510293 0 26
1.5514791 5.6018968 2.5076413 0 26
1.5354959 5.6067877 2.5078447 0 26
1.5177209 5.605073 2.5051162 0 26
1.5024136 5.6124358 2.5064666 0 26
1.4839289 5.6078625 2.5025089 0 26
1.4704686 5.622292 2.5070515 0 26
1.4492974 5.607131 2.4984233 0 26
1.4309977 5.6027489 2.4946277 0 26
1.4190314 5.6232581 2.5019331 0 26
1.3977931 5.6069779 2.4928918 0 26
1.3761041 5.5883641 2.482847 0 26
1.3621926 5.6011643 2.4867842 0 26
1.3457353 5.6035895 2.4861333 0 26
1.3300377 5.6091809 2.4869077 0 26
1.3123158 5.6061711 2.4838908 0 26
1.2961825 5.609858 2.4838634 0 26
1.2774373 5.6020904 2.4787881 0 26
1.2620482 5.6089306 2.4801993 0 26
1.2438242 5.6030879 2.4760249 0 26
1.2290432 5.612709 2.4787049 0 26
1.2117133 5.6106973 2.4762683 0 26
1.1942817 5.6080532 2.4735761 0 26
1.1781983 5.6116567 2.4736614 0 26
1.1617876 5.6136842 2.473073 0 26
1.1440135 5.6089888 2.4695456 0 26
1.1284505 5.6150579 2.4707797 0 26
1.1097419 5.6053238 2.4650826 0 26
1.0947609 5.6143098 2.4676404 0 26
1.0769355 5.6086645 2.4637885 0 26
1.0598174 5.6064849 2.4614825 0 26
1.0443254 5.6128769 2.462961 0 26
1.0284927 5.6175194 2.4636908 0 26
1.0094488 5.6043887 2.4566495 0 26
0.99569243 5.6205688 2.462477 0 26
0.98122382 5.6331129 2.466727 0 26
0.98300648 5.7409029 2.5126805 1.157894e+27 26
0.87743384 5.2143955 2.2811253 2.315788e+27 26
0.8613897 5.2105269 2.2783403 2.315788e+27 26
0.84962147 5.2327628 2.2869859 2.315788e+27 26
0.83535123 5.2400365 2.2891059 3.4736819e+27 26
0.81085998 5.1821718 2.2628002 4.631576e+27 26
0.79632401 5.186841 2.2638304 4.631576e+27 26
0.78155935 5.1900854 2.2642565 4.631576e+27 26
0.76734942 5.1971259 2.2663567 4.631576e+27 26
0.7493729 5.1783352 2.2572138 4.631576e+27 26
0.73535168 5.1865745 2.2598746 4.631576e+27 26
0.62465787 4.4988298 1.9594227 4.631576e+27 26
0.6101796 4.4892416 1.9544746 4.631576e+27 26
0.59714389 4.4899998 1.9540495 4.631576e+27 26
0.58554029 4.5017262 1.9584122 4.631576e+27 26
0.57209939 4.499464 1.9567046 4.631576e+27 26
0.55904555 4.5001335 1.9562891 4.631576e+27 26
0.54617119 4.5022378 1.9565133 4.631576e+27 26
0.53354186 4.5064378 1.9576638 4.631576e+27 26
0.5178628 4.484364 1.94742 4.631576e+27 26
0.50722671 4.5058689 1.9561177 4.631576e+27 26
0.49417743 4.5064321 1.9557376 4.631576e+27 26
0.47935277 4.4903178 1.9481381 4.631576e+27 26
0.46602172 4.4876075 1.946373 4.631576e+27 26
0.45335409 4.4912357 1.9473734 4.631576e+27 26
0.44082856 4.4964514 1.9490775 4.631576e+27 26
0.42758593 4.4943705 1.9476346 4.631576e+27 26
0.41476241 4.4966249 1.948087 4.631576e+27 26
0.40192312 4.4987721 1.9485087 4.631576e+27 26
0.38840196 4.4930978 1.9455594 4.631576e+27 26
0.37432468 4.4802961 1.9395423 4.631576e+27 26
0.36366555 4.5088782 1.9514551 4.631576e+27 26
0.34929678 4.4918056 1.9436234 4.631576e+27 26
0.33725065 4.5043573 1.9486272 4.631576e+27 26
0.3235715 4.495153 1.9442348 4.631576e+27 26
0.31156915 4.5093699 1.9499885 4.631576e+27 26
0.29793113 4.5000429 1.9455769 4.631576e+27 26
0.28477612 4.4974155 1.9440792 4.631576e+27 26
0.27225831 4.5050025 1.9470124 4.631576e+27 26
0.25911063 4.5023279 1.9455264 4.631576e+27 26
0.24605739 4.501019 1.9446473 4.631576e+27 26
0.23256414 4.4909892 1.940017 4.631576e+27 26
0.22044085 4.5077124 1.9469594 4.631576e+27 26
0.20700601 4.497951 1.9424784 4.631576e+27 26
0.1936734 4.4891777 1.938441 4.631576e+27 26
0.18130994 4.5031395 1.9442368 4.631576e+27 26
0.16879676 4.5151668 1.9492121 4.631576e+27 26
0.1548326 4.4870696 1.9368824 4.631576e+27 26
0.14244843 4.5037327 1.9438903 4.631576e+27 26
0.12955002 4.5057645 1.9445984 4.631576e+27 26
0.11645119 4.5004187 1.9421388 4.631576e+27 26
0.1036652 4.5072541 1.944952 4.631576e+27 26
0.09069106 4.5066085 1.9445529 4.631576e+27 26
0.077812009 4.5111737 1.9464182 4.631576e+27 26
0.064753048 4.5049591 1.9436486 4.631576e+27 26
0.05194648 4.5174937 1.9489839 4.631576e+27 26
0.038808107 4.4998107 1.941299 4.631576e+27 26
0.025849074 4.4955273 1.9394109 4.631576e+27 26
0.012916418 4.491704 1.9377375 4.631576e+27 26
5.9635031e-06 4.4946685 1.9390082 4.631576e+27 26
-0.012888371 4.4860902 1.9353157 4.631576e+27 26
-0.025891811 4.5050387 1.9435142 4.631576e+27 26
-0.03876457 4.4961467 1.9397181 4.631576e+27 26
-0.051806998 4.5064034 1.9441993 4.631576e+27 26
-0.064708531 4.5026932 1.9426709 4.631576e+27 26
-0.077570081 4.4978404 1.9406651 4.631576e+27 26
-0.090564772 4.500927 1.9421012 4.631576e+27 26
-0.10318178 4.4867535 1.9361056 4.631576e+27 26
-0.11623959 4.492702 1.9388087 4.631576e+27 26
-0.1292976 4.4974003 1.9409884 4.631576e+27 26
-0.14216487 4.4951458 1.9401838 4.631576e+27 26
-0.15517357 4.4972978 1.9412972 4.631576e+27 26
-0.16833206 4.503056 1.9439837 4.631576e+27 26
-0.18125074 4.501966 1.94373 4.631576e+27 26
-0.19406804 4.4986024 1.9425105 4.631576e+27 26
-0.20706509 4.499495 1.9431449 4.631576e+27 26
-0.21959271 4.490613 1.9395738 4.631576e+27 26
-0.23291612 4.4980173 1.9430528 4.631576e+27 26
-0.24528986 4.4871974 1.9386754 4.631576e+27 26
-0.25944239 4.5083008 1.9481072 4.631576e+27 26
-0.27206033 4.5019255 1.9456822 4.631576e+27 26
-0.28518572 4.5040736 1.9469569 4.631576e+27 26
-0.29788989 4.4996009 1.9453856 4.631576e+27 26
-0.31035668 4.4919944 1.9424746 4.631576e+27 26
-0.32406402 4.502162 1.9472661 4.631576e+27 26
-0.33641538 4.4933615 1.9438698 4.631576e+27 26
-0.35008705 4.5021224 1.9480871 4.631576e+27 26
-0.36325631 4.5039535 1.9493233 4.631576e+27 26
-0.37656048 4.5072007 1.9511889 4.631576e+27 26
-0.38862833 4.4958553 1.9467531 4.631576e+27 26
-0.40211573 4.5010629 1.9495003 4.631576e+27 26
-0.41529068 4.5024829 1.9506243 4.631576e+27 26
-0.42907289 4.5101266 1.9544622 4.631576e+27 26
-0.44154796 4.5039124 1.952311 4.631576e+27 26
-0.45470631 4.5047512 1.9532332 4.631576e+27 26
-0.46738219 4.500824 1.9521048 4.631576e+27 26
-0.48094416 4.5053382 1.9546542 4.631576e+27 26
-0.49225846 4.4890428 1.9481902 4.631576e+27 26
-0.50590307 4.4942179 1.9510591 4.631576e+27 26
-0.52026927 4.5053072 1.9565144 4.631576e+27 26
-0.5353421 4.5217457 1.9643133 4.631576e+27 26
-0.54604137 4.5012674 1.9560909 4.631576e+27 26
-0.56012625 4.5089307 1.9601127 4.631576e+27 26
-0.57233948 4.5014477 1.9575667 4.631576e+27 26
-0.58792001 4.5201159 1.9664116 4.631576e+27 26
-0.5994947 4.5077677 1.9617814 4.631576e+27 26
-0.6119296 4.5022058 1.9601183 4.631576e+27 26
-0.62670076 4.5136309 1.9658684 4.631576e+27 26
-0.63863397 4.5044923 1.9626795 4.631576e+27 26
-0.65225917 4.5073419 1.9647298 4.631576e+27 26
-0.66420811 4.4986506 1.9617654 4.631576e+27 26
-0.68068278 4.5202775 1.9720416 4.631576e+27 26
-0.69213623 4.5082955 1.9676741 4.631576e+27 26
-0.70542699 4.5084324 1.9686105 4.631576e+27 26
-0.71754771 4.5011487 1.9663227 4.631576e+27 26
-0.73157293 4.505785 1.9692585 4.631576e+27 26
-0.74621713 4.5139256 1.9737455 4.631576e+27 26
-0.75854105 4.507915 1.9720626 4.631576e+27 26
-0.76983291 4.4960093 1.9678141 4.631576e+27 26
-0.78461325 4.5044608 1.9724921 4.631576e+27 26
-0.80000067 4.5159812 1.9785355 4.631576e+27 26
-0.81304604 4.5140433 1.9787022 4.631576e+27 26
-0.82403386 4.5008545 1.973951 4.631576e+27 26
-0.83809978 4.5045543 1.976622 4.631576e+27 26
-0.85150522 4.5045686 1.9776942 4.631576e+27 26
-0.86677313 4.5142064 1.9830111 4.631576e+27 26
-0.8760739 4.4928718 1.974737 4.631576e+27 26
-0.89223254 4.506743 1.9819529 4.631576e+27 26
-0.90589285 4.5076947 1.9835085 4.631576e+27 26
-0.91879636 4.5048318 1.9834024 4.631576e+27 26
-0.93157685 4.5013804 1.9830536 4.631576e+27 26
-0.94699079 4.5104942 1.9882596 4.631576e+27 26
-0.9612245 4.5137324 1.9908966 4.631576e+27 26
-0.97522491 4.5157232 1.9930029 4.631576e+27 26
-0.98921305 4.5175266 1.9950454 4.631576e+27 26
-1.0013574 4.5108981 1.9933809 4.631576e+27 26
-1.0125027 4.4999294 1.9898115 4.631576e+27 26
-1.0265789 4.5020275 1.992036 4.631576e+27 26
-1.0356675 4.4824076 1.9846635 4.631576e+27 26
-1.0525335 4.4964433 1.9922093 4.631576e+27 26
-1.0664879 4.4977632 1.9941442 4.631576e+27 26
-1.0817918 4.5045915 1.9985418 4.631576e+27 26
-1.0972654 4.511869 2.0031617 4.631576e+27 26
-1.1096935 4.5065212 2.0021951 4.631576e+27 26
-1.1262894 4.5179443 2.0087004 4.631576e+27 26
-1.1382492 4.5106411 2.0068996 4.631576e+27 26
-1.1535872 4.5166607 2.0110447 4.631576e+27 26
-1.1675576 4.517168 2.0127566 4.631576e+27 26
-1.1796607 4.5104456 2.0112636 4.631576e+27 26
-1.1964098 4.521358 2.0176549 4.631576e+27 26
-1.2069652 4.5088029 2.0135918 4.631576e+27 26
-1.2205184 4.5075259 2.01458 4.631576e+27 26
-1.2334183 4.5038133 2.0144968 4.631576e+27 26
-1.2487249 4.5087943 2.0183218 4.631576e+27 26
-1.2688234 4.5306964 2.0297503 4.631576e+27 26
-1.2785772 4.5155058 2.0245829 4.631576e+27 26
-1.2913624 4.5111542 2.0242877 4.631576e+27 26
-1.3041732 4.5069046 2.0240545 4.631576e+27 26
-1.3215529 4.5182867 2.0308638 4.631576e+27 26
-1.3292919 4.4967356 2.022886 4.631576e+27 26
-1.351247 4.5231423 2.036504 4.631576e+27 26
-1.3632892 4.5160828 2.0350814 4.631576e+27 26
-1.3755332 4.5097499 2.0340006 4.631576e+27 26
-1.3913139 4.5149417 2.0381377 4.631576e+27 26
-1.4056305 4.515245 2.0400901 4.631576e+27 26
-1.4194136 4.5137644 2.041256 4.631576e+27 26
-1.4346248 4.5167289 2.0444529 4.631576e+27 26
-1.4496813 4.5190706 2.0473905 4.631576e+27 26
-1.4586636 4.5025358 2.0417905 4.631576e+27 26
-1.4748245 4.5081844 2.0462656 4.631576e+27 26
-1.4892157 4.5082846 2.0482454 4.631576e+27 26
-1.5071322 4.5188708 2.0550148 4.631576e+27 26
-1.6732713 4.9693737 2.2620647 4.631576e+27 26
-1.7065953 5.0205793 2.2875969 4.631576e+27 26
-1.7162733 5.0018234 2.2812893 4.631576e+27 26
-1.7286496 4.9911146 2.2786617 4.631576e+27 26
-1.9876374 5.685987 2.5984991 4.631576e+27 26
-2.0110896 5.7004247 2.6077278 4.631576e+27 26
-2.030359 5.7027464 2.6114488 4.631576e+27 26
-2.0523417 5.7124734 2.6185937 4.631576e+27 26
-2.0739152 5.7207923 2.6251285 4.631576e+27 26
-2.0926299 5.7210412 2.6279922 4.631576e+27 26
-2.1103909 5.718595 2.6296442 4.631576e+27 26
-2.1333647 5.7300868 2.637737 4.631576e+27 26
-2.1488512 5.7213364 2.6365414 4.631576e+27 26
-2.1715214 5.7315917 2.6441326 4.631576e+27 26
-2.1989596 5.7540398 2.6573932 4.631576e+27 26
-2.2173247 5.7524576 2.659595 4.631576e+27 26
-2.2372358 5.7547703 2.6636264 4.631576e+27 26
-2.2548018 5.7509546 2.664849 4.631576e+27 26
-2.2807443 5.7682791 2.6759033 4.631576e+27 26
-2.3002822 5.7691426 2.6793602 4.631576e+27 26
-2.3215544 5.7741961 2.6847949 4.631576e+27 26
-2.341084 5.7747579 2.6881738 4.631576e+27 26
-2.363157 5.7814226 2.694427 4.631576e+27 26
-2.3874154 5.7931714 2.7030895 4.631576e+27 26
-2.4080753 5.795958 2.707608 4.631576e+27 26
-2.4306638 5.8031921 2.7142398 4.631576e+27 26
-2.454309 5.8127017 2.7219758 4.631576e+27 26
-2.4787664 5.8238559 2.7305245 4.631576e+27 26
-2.4989276 5.824707 2.7342796 4.631576e+27 26
-2.5234277 5.835465 2.7427232 4.631576e+27 26
-2.5439112 5.8367257 2.7467413 4.631576e+27 26
-2.5702167 5.8511066 2.756974 4.631576e+27 26
-2.5861201 5.8416543 2.756011 4.631576e+27 26
-2.6122351 5.8551207 2.7658954 4.631576e+27 26
-2.6321492 5.8544736 2.7691519 4.631576e+27 26
-2.6524296 5.8545294 2.772773 4.631576e+27 26
-2.6793132 5.8689327 2.7832305 4.631576e+27 26
-2.7035427 5.877233 2.7908404 4.631576e+27 26
-2.7246554 5.8785663 2.7951808 4.631576e+27 26
-2.7508507 5.8906469 2.804673 4.631576e+27 26
-2.7765186 5.901309 2.8135374 4.631576e+27 26
-2.7986014 5.9041314 2.8187065 4.631576e+27 26
-2.8227494 5.9111185 2.8259039 4.631576e+27 26
-2.8454523 5.9148803 2.8316007 4.631576e+27 26
-2.876744 5.9361901 2.8457489 4.631576e+27 26
-2.8990517 5.9386668 2.850919 4.631576e+27 26
-2.9220128 5.9423156 2.8566906 4.631576e+27 26
-2.9440663 5.9439583 2.8615367 4.631576e+27 26
-2.9694991 5.9522295 2.8696156 4.631576e+27 26
-2.9987905 5.9679403 2.8813336 4.631576e+27 26
-3.0165346 5.9604874 2.8819094 4.631576e+27 26
-3.0491889 5.9822702 2.896667 4.631576e+27 26
-3.0676146 5.9759035 2.8978417 4.631576e+27 26
-3.0932095 5.9833708 2.905762 4.631576e+27 26
-3.1263144 6.005034 2.9206345 4.631576e+27 26
-3.1449952 5.9987578 2.9219663 4.631576e+27 26
-3.1783028 6.0201483 2.9368231 4.631576e+27 26
-3.2034369 6.0257425 2.9440317 4.631576e+27 26
-3.2279859 6.0300393 2.9506521 4.631576e+27 26
-3.2569005 6.0422497 2.9611952 4.631576e+27 26
-3.2901428 6.0621381 2.9755647 4.631576e+27 26
-3.3125992 6.0618896 2.980104 4.631576e+27 26
-3.3413777 6.0730062 2.990278 4.631576e+27 26
-3.367434 6.078928 2.9979475 4.631576e+27 26
-3.3925567 6.0829659 3.0047352 4.631576e+27 26
-3.4247882 6.0994797 3.0177424 4.631576e+27 26
-3.4513206 6.1055584 3.0256453 4.631576e+27 26
-3.4792571 6.1138911 3.034718 4.631576e+27 26
-3.5118015 6.130024 3.0477235 4.631576e+27 26
-3.5362852 6.1318326 3.0536635 4.631576e+27 26
-3.5678332 6.1456513 3.0656397 4.631576e+27 26
-3.5921228 6.1467333 3.071317 4.631576e+27 26
-3.6239011 6.1603961 3.0833356 4.631576e+27 26
-3.6511397 6.1660771 3.091419 4.631576e+27 26
-3.6759295 6.1674395 3.0973861 4.631576e+27 26
-3.7105205 6.1849837 3.1115408 4.631576e+27 26
-3.7441399 6.2005539 3.1247749 4.631576e+27 26
-3.7731497 6.2082 3.1340806 4.631576e+27 26
-3.8004019 6.2127347 3.1418715 4.631576e+27 26
-3.8412173 6.2391014 3.1607757 4.631576e+27 26
-3.8695614 6.2448621 3.1693158 4.631576e+27 26
-3.8995957 6.2531185 3.1791811 4.631576e+27 26
-3.9284244 6.2592058 3.1880035 4.631576e+27 26
-3.9639447 6.2756667 3.2021775 4.631576e+27 26
-3.9950385 6.284812 3.2126899 4.631576e+27 26
-4.0313087 6.3017888 3.227278 4.631576e+27 26
-4.063478 6.312036 3.2384937 4.631576e+27 26
-4.095933 6.3224487 3.2498629 4.631576e+27 26
-4.1293821 6.3341084 3.2619438 4.631576e+27 26
-4.1662922 6.3507504 3.2766676 4.631576e+27 26
-4.200336 6.3626938 3.2890451 4.631576e+27 26
-4.2348952 6.3751149 3.3017445 4.631576e+27 26
-4.2708416 6.3893061 3.3154383 4.631576e+27 26
-4.2926736 6.3821855 3.3181319 4.631576e+27 26
-4.3340988 6.4039512 3.3359113 4.631576e+27 26
-4.3743472 6.4235678 3.3526652 4.631576e+27 26
-4.4065409 6.4310327 3.3631582 4.631576e+27 26
-4.4411831 6.4418035 3.3754525 4.631576e+27 26
-4.4802999 6.4587364 3.3910592 4.631576e+27 26
-4.5206451 6.477066 3.4074907 4.631576e+27 26
-4.5534477 6.484273 3.4181535 4.631576e+27 26
-4.5901394 6.4967384 3.4316654 4.631576e+27 26
-4.6287303 6.5115643 3.4465098 4.631576e+27 26
-4.6702337 6.5301218 3.463423 4.631576e+27 26
-4.7014785 6.5340362 3.472652 4.631576e+27 26
-4.744226 6.5536308 3.4902985 4.631576e+27 26
-4.7845702 6.5695248 3.506073 4.631576e+27 26
-4.8175292 6.5749841 3.516362 4.631576e+27 26
-4.8569355 6.5889578 3.5312867 4.631576e+27 26
-4.8947215 6.6004133 3.5449517 4.631576e+27 26
-4.9339609 6.6135116 3.5595884 4.631576e+27 26
-4.9820452 6.6380696 3.5804987 4.631576e+27 26
-5.0241938 6.6543031 3.5970294 4.631576e+27 26
-5.0672674 6.6713901 3.6141243 4.631576e+27 26
-5.1052384 6.6814241 3.6274943 4.631576e+27 26
-5.1543894 6.7057099 3.6487081 4.631576e+27 26
-5.1925955 6.7153788 3.6620748 4.631576e+27 26
-5.2524319 6.7525649 3.6905711 4.631576e+27 26
-5.2899542 6.7606173 3.7032666 4.631576e+27 26
-5.3294692 6.7709274 3.7172899 4.631576e+27 26
-5.3753772 6.7890105 3.7356846 4.631576e+27 26
-5.4249706 6.8113265 3.7565289 4.631576e+27 26
-5.4661331 6.8226752 3.7714372 3.4736819e+27 26
-6.8464284 1.8644252 3.0611198 4.631576e+27 26
-6.8642187 1.8480935 3.0666862 4.631576e+27 26
-6.8596191 1.8257258 3.0622742 4.631576e+27 26
-6.8719115 1.8078626 3.0654294 4.631576e+27 26
-6.8634062 1.784548 3.0593345 4.631576e+27 26
-6.863925 1.763636 3.0572934 4.631576e+27 26
-6.8727117 1.744851 3.0589609 4.631576e+27 26
-6.8900828 1.7281959 3.0644689 4.631576e+27 26
-6.9306951 1.7172236 3.0803239 4.631576e+27 26
-6.9630456 1.7040118 3.0925124 4.631576e+27 26
-7.004777 1.6928998 3.1088727 4.631576e+27 26
-7.0471435 1.6817153 3.1255176 4.631576e+27 26
-7.0668826 1.6649715 3.1321368 4.631576e+27 26
-7.1251564 1.6570989 3.1558404 4.631576e+27 26
-7.1310725 1.6368839 3.156364 4.631576e+27 26
-7.1303005 1.6151465 3.1539545 4.631576e+27 26
-7.1217909 1.5917124 3.1481535 4.631576e+27 26
-7.1150827 1.5687546 3.143182 4.631576e+27 26
-7.1247354 1.5494224 3.1454659 4.631576e+27 26
-7.1363859 1.5304872 3.1486542 4.631576e+27 26
-7.1260829 1.5068663 3.1421845 4.631576e+27 26
-7.1289501 1.4860789 3.1415524 4.631576e+27 26
-7.1323786 1.4654149 3.1411941 4.631576e+27 26
-7.1010346 1.4377155 3.1255569 4.631576e+27 26
-7.0872107 1.4137232 3.1176708 4.631576e+27 26
-7.0935364 1.393797 3.1186783 4.631576e+27 26
-7.0951142 1.3729383 3.1176243 4.631576e+27 26
-7.0956054 1.3518865 3.1161196 4.631576e+27 26
-7.0958986 1.3308179 3.1145558 4.631576e+27 26
-7.0894308 1.3085225 3.1100533 4.631576e+27 26
-7.0871739 1.2870525 3.1074274 4.631576e+27 26
-7.0949984 1.2674189 3.1092479 4.631576e+27 26
-7.1024656 1.2476976 3.1109359 4.631576e+27 26
-7.1037579 1.2268869 3.1099446 4.631576e+27 26
-7.0990334 1.205068 3.1063468 4.631576e+27 26
-7.0808368 1.1810505 3.0968864 4.631576e+27 26
-7.1033239 1.1638262 3.1052456 4.631576e+27 26
-7.0995717 1.1422673 3.1021571 4.631576e+27 26
-7.0936394 1.1204056 3.0981452 4.631576e+27 26
-7.0846391 1.0981221 3.092823 4.631576e+27 26
-7.0996923 1.0795679 3.098027 4.631576e+27 26
-7.093327 1.0577494 3.09391 4.631576e+27 26
-7.0972447 1.0374894 3.0943055 4.631576e+27 26
-7.1073837 1.0181152 3.0974374 4.631576e+27 26
-7.1058459 0.99706 3.0955052 4.631576e+27 26
-7.0927014 0.97443616 3.0885463 4.631576e+27 26
-7.0925918 0.95365834 3.0872922 4.631576e+27 26
-7.1046081 0.93449217 3.0913408 4.631576e+27 26
-7.09338 0.91228199 3.0853016 4.631576e+27 26
-7.0969577 0.89201367 3.0857298 4.631576e+27 26
-7.1026325 0.87199688 3.0870945 4.631576e+27 26
-7.0990705 0.85085452 3.0844707 4.631576e+27 26
-7.0935102 0.82951355 3.0810063 4.631576e+27 26
-7.0941772 0.80892897 3.0802734 4.631576e+27 26
-7.0887427 0.78767598 3.0769179 4.631576e+27 26
-7.1001115 0.76828605 3.0808814 4.631576e+27 26
-7.1042986 0.74808669 3.0817525 4.631576e+27 26
-7.1141567 0.72845614 3.0851078 4.631576e+27 26
-7.0924625 0.70564127 3.0748076 4.631576e+27 26
-7.0973544 0.68553209 3.0760615 4.631576e+27 26
-7.0992398 0.66512424 3.0760374 4.631576e+27 26
-7.108901 0.64542258 3.079407 4.631576e+27 26
-7.1038742 0.62438464 3.0764394 4.631576e+27 26
-7.0975933 0.60327965 3.0729558 4.631576e+27 26
-7.1046882 0.58331925 3.0752888 4.631576e+27 26
-7.1043949 0.56274229 3.0744491 4.631576e+27 26
-7.1002564 0.54188293 3.0719714 4.631576e+27 26
-7.1128387 0.52228421 3.0767529 4.631576e+27 26
-7.1025267 0.5010066 3.0716569 4.631576e+27 26
-7.1093898 0.48095873 3.0740142 4.631576e+27 26
-7.1017241 0.45993832 3.0701156 4.631576e+27 26
-7.1339235 0.44143653 3.0834742 4.631576e+27 26
-7.1438484 0.42144221 3.0872276 4.631576e+27 26
-7.1290388 0.40000981 3.0803182 4.631576e+27 26
-7.1251392 0.37925011 3.0781493 4.631576e+27 26
-7.1269035 0.35880435 3.0784533 4.631576e+27 26
-7.1357102 0.33868861 3.0818243 4.631576e+27 26
-7.1352792 0.31811589 3.0812304 4.631576e+27 26
-7.1345396 0.29753807 3.080529 4.631576e+27 26
-7.1452971 0.27741578 3.0848167 4.631576e+27 26
-7.12534 0.25613207 3.0758703 4.631576e+27 26
-7.1486607 0.23639864 3.0856314 4.631576e+27 26
-7.1493158 0.21585058 3.0856335 4.631576e+27 26
-7.1388302 0.19499801 3.0808532 4.631576e+27 26
-7.1356897 0.1743885 3.0792689 4.631576e+27 26
-7.1454816 0.1540788 3.0832906 4.631576e+27 26
-7.1285777 0.13321644 3.0758185 4.631576e+27 26
-7.0730844 0.1118433 3.0517232 4.631576e+27 26
-7.0067739 0.090651147 3.0229883 4.631576e+27 26
-6.9498377 0.069936074 2.9983249 4.631576e+27 26
-6.9042025 0.049630735 2.9785628 4.631576e+27 26
-6.8733039 0.029652141 2.9651837 4.631576e+27 26
-6.8703523 0.0098919021 2.9638858 4.631576e+27 26
-6.8672342 1.8222823e-05 2.9625375 4.631576e+27 26
-7.1391144 -0.010278865 2.8846691 4.631576e+27 25
-7.1090727 -0.030669272 2.8725541 4.631576e+27 25
-7.0334868 -0.050560091 2.8420591 4.631576e+27 25
-6.9942832 -0.070383325 2.826288 4.631576e+27 25
-6.9168196 -0.089487344 2.7950785 4.631576e+27 25
-6.8766952 -0.10873789 2.7789791 4.631576e+27 25
-6.863646 -0.12826549 2.7738433 4.631576e+27 25
-6.8772745 -0.14829542 2.7795117 4.631576e+27 25
-6.8761559 -0.16804577 2.7792435 4.631576e+27 25
-6.8842759 -0.18804483 2.7827325 4.631576e+27 25
-6.8773913 -0.20764069 2.7801793 4.631576e+27 25
-6.8808465 -0.22754231 2.7818291 4.631576e+27 25
-8.8324709 -0.31749773 3.5711975 4.631576e+27 25
-8.8515415 -0.34366062 3.5792925 4.631576e+27 25
-8.8559065 -0.36932576 3.5814722 4.631576e+27 25
-8.8497286 -0.39455211 3.5794177 4.631576e+27 25
-8.8660746 -0.42081848 3.5865035 4.631576e+27 25
-8.8483076 -0.44546852 3.5798192 4.631576e+27 25
-8.8568449 -0.47142372 3.5838068 4.631576e+27 25
-8.8583765 -0.4970428 3.5849898 4.631576e+27 25
-8.8505907 -0.52212936 3.5824316 4.631576e+27 25
-8.8528214 -0.54779935 3.583957 4.631576e+27 25
-8.8570395 -0.57362008 3.5863171 4.631576e+27 25
-8.8492308 -0.59866112 3.5838375 4.631576e+27 25
-8.8578691 -0.62482703 3.5880482 4.631576e+27 25
-8.8600721 -0.65058076 3.5896833 4.631576e+27 25
-8.8680058 -0.67679536 3.5936708 4.631576e+27 25
-8.8710804 -0.70268226 3.5957208 4.631576e+27 25
-8.8720617 -0.72842669 3.5969522 4.631576e+27 25
-8.8576746 -0.7528826 3.5919816 4.631576e+27 25
-8.8706923 -0.7796765 3.5981543 4.631576e+27 25
-8.8730202 -0.8055883 3.600023 4.631576e+27 25
-8.8759966 -0.83158767 3.6021855 4.631576e+27 25
-8.8722725 -0.85697103 3.6016588 4.631576e+27 25
-8.8916407 -0.88464457 3.6105385 4.631576e+27 25
-8.8752041 -0.90877908 3.6049104 4.631576e+27 25
-8.877574 -0.93481356 3.6069493 4.631576e+27 25
-8.8905182 -0.96202165 3.613317 4.631576e+27 25
-8.8979473 -0.98870844 3.6174767 4.631576e+27 25
-8.8985481 -1.0146762 3.6188917 4.631576e+27 25
-8.8963852 -1.0403414 3.6192131 4.631576e+27 25
-8.8888893 -1.0653721 3.6173944 4.631576e+27 25
-8.8957844 -1.0921438 3.6214628 4.631576e+27 25
-8.8925982 -1.1177069 3.6214585 4.631576e+27 25
-8.9026365 -1.1449711 3.6268721 4.631576e+27 25
-8.9179449 -1.1730062 3.6344669 4.631576e+27 25
-8.9011059 -1.1968282 3.6289914 4.631576e+27 25
-8.9077148 -1.2237931 3.633105 4.631576e+27 25
-8.9124975 -1.2505611 3.6365066 4.631576e+27 25
-8.9198084 -1.2777405 3.6409733 4.631576e+27 25
-8.928833 -1.3052347 3.6461732 4.631576e+27 25
-8.9247847 -1.3308544 3.6460669 4.631576e+27 25
-8.9330759 -1.3583492 3.6510341 4.631576e+27 25
-8.9237547 -1.3831859 3.6488342 4.631576e+27 25
-8.9287758 -1.4102564 3.6525297 4.631576e+27 25
-8.9384031 -1.4381213 3.6581438 4.631576e+27 25
-8.9401712 -1.4647799 3.6605754 4.631576e+27 25
-8.9445238 -1.4919049 3.6640985 4.631576e+27 25
-8.951622 -1.5195467 3.6687801 4.631576e+27 25
-8.9530525 -1.5462776 3.6711726 4.631576e+27 25
-8.958087 -1.5736766 3.6750767 4.631576e+27 25
-8.9558954 -1.5998412 3.676049 4.631576e+27 25
-8.9584017 -1.6268733 3.6789818 4.631576e+27 25
-8.9575148 -1.6533216 3.6805539 4.631576e+27 25
-8.9669123 -1.6817219 3.6863861 4.631576e+27 25
-8.961441 -1.7073739 3.6861391 4.631576e+27 25
-8.9652872 -1.7348257 3.6897573 4.631576e+27 25
-8.9697142 -1.762444 3.6936486 4.631576e+27 25
-8.9941645 -1.7941133 3.7058253 4.631576e+27 25
-8.9818687 -1.8185198 3.7028975 4.631576e+27 25
-8.9808054 -1.8451917 3.7046304 4.631576e+27 25
-8.980566 -1.8720608 3.7067358 4.631576e+27 25
-8.9948969 -1.9020418 3.7148921 4.631576e+27 25
-8.9977913 -1.9296889 3.718363 4.631576e+27 25
-8.9993725 -1.9571012 3.7213254 4.631576e+27 25
-9.0191326 -1.9885652 3.7318449 4.631576e+27 25
-9.013588 -2.0145271 3.731931 4.631576e+27 25
-9.0319595 -2.0459077 3.7419567 4.631576e+27 25
-9.0436592 -2.0759037 3.7492604 4.631576e+27 25
-9.0407858 -2.1026173 3.7505593 4.631576e+27 25
-9.02631 -2.1266162 3.7470739 4.631576e+27 25
-9.0325699 -2.155513 3.7522295 4.631576e+27 25
-9.0285654 -2.1820047 3.7531555 4.631576e+27 25
-9.0458813 -2.213728 3.7629831 4.631576e+27 25
-9.0594988 -2.244679 3.7713163 4.631576e+27 25
-9.0644569 -2.2735803 3.7760849 4.631576e+27 25
-9.0655909 -2.3015814 3.7792976 4.631576e+27 25
-9.061965 -2.3284068 3.7805607 4.631576e+27 25
-9.0893927 -2.3633249 3.7948213 4.631576e+27 25
-9.0712166 -2.3864558 3.790081 4.631576e+27 25
-9.0804138 -2.4168024 3.7968102 4.631576e+27 25
-9.0964394 -2.4490874 3.8064389 4.631576e+27 25
-9.1020613 -2.4786811 3.8117568 4.631576e+27 25
-9.1052628 -2.5076871 3.8161006 4.631576e+27 25
-9.1090574 -2.5369222 3.8207307 4.631576e+27 25
-9.1155853 -2.5669959 3.8265479 4.631576e+27 25
-9.1229277 -2.5973878 3.8327482 4.631576e+27 25
-9.1333981 -2.6287723 3.8403058 4.631576e+27 25
-9.1356516 -2.6578782 3.8444493 4.631576e+27 25
-9.130826 -2.6849642 3.8456507 4.631576e+27 25
-9.1477413 -2.7185292 3.8560498 4.631576e+27 25
-9.1518745 -2.7484102 3.8611062 4.631576e+27 25
-9.1517382 -2.777071 3.8644001 4.631576e+27 25
-9.1656742 -2.8100958 3.8736794 4.631576e+27 25
-9.1679974 -2.8396618 3.8780947 4.631576e+27 25
-9.1863461 -2.8743083 3.8893349 4.631576e+27 25
-9.18822 -2.9039156 3.893646 4.631576e+27 25
-9.1873703 -2.9327185 3.896842 4.631576e+27 25
-9.1912394 -2.9630904 3.9020793 4.631576e+27 25
-9.1943846 -2.9933054 3.9070511 4.631576e+27 25
-9.2174072 -3.0301297 3.9205191 4.631576e+27 25
-9.220788 -3.060636 3.9256825 4.631576e+27 25
-9.2163858 -3.0886123 3.927572 4.631576e+27 25
-9.2407942 -3.1263642 3.9417865 4.631576e+27 25
-9.2499981 -3.1591372 3.9495697 4.631576e+27 25
-9.2510824 -3.1892288 3.9539304 4.631576e+27 25
-9.2552347 -3.2204533 3.9596448 4.631576e+27 25
-9.265666 -3.2539699 3.9680929 4.631576e+27 25
-9.2709303 -3.2857826 3.9743755 4.631576e+27 25
-9.2793264 -3.3188107 3.9820478 4.631576e+27 25
-9.2848492 -3.3509181 3.9885345 4.631576e+27 25
-9.2917042 -3.3836088 3.9956403 4.631576e+27 25
-9.3036528 -3.4182794 4.0049872 4.631576e+27 25
-9.3158598 -3.4531875 4.0144978 4.631576e+27 25
-9.3245974 -3.4869432 4.0225658 4.631576e+27 25
-9.3274355 -3.5185962 4.0281363 4.631576e+27 25
-9.3503351 -3.5579681 4.0424256 4.631576e+27 25
-9.3433514 -3.5860882 4.0438457 4.631576e+27 25
-9.3594379 -3.6231611 4.0552983 3.4736819e+27 25
-7.2385545 -4.1884546 3.3791969 6.8663625e-44 25
-7.2005086 -4.1941118 3.3670495 6.8663625e-44 25
-7.1565218 -4.1960859 3.3521068 6.8663625e-44 25
-7.1082482 -4.1952829 3.33513 6.8663625e-44 25
-7.0471401 -4.1865749 3.3120909 6.8663625e-44 25
-7.0024028 -4.187274 3.2967074 6.8663625e-44 25
-6.9719305 -4.1963043 3.2880261 6.8663625e-44 25
-6.9280472 -4.1970654 3.2730062 6.8663625e-44 25
-6.8080254 -4.1511517 3.2219279 6.8663625e-44 25
-6.7690625 -4.1541309 3.209126 6.8663625e-44 25
-6.7150469 -4.1475992 3.1891565 6.8663625e-44 25
-6.6857777 -4.1561165 3.1809163 6.8663625e-44 25
-6.6299477 -4.1478777 3.1600127 6.8663625e-44 25
-6.5926194 -4.150938 3.1478949 6.8663625e-44 25
-6.5644841 -4.1596193 3.1401565 6.8663625e-44 25
-6.5608311 -4.1837816 3.1441483 6.8663625e-44 25
-6.5276952 -4.1890922 3.1340261 6.8663625e-44 25
-6.4982781 -4.1966329 3.1256809 6.8663625e-44 25
-6.449132 -4.1912107 3.1078234 6.8663625e-44 25
-6.4222598 -4.2000518 3.1006784 6.8663625e-44 25
-6.3156257 -4.1562805 3.0549502 6.8663625e-44 25
-6.2702918 -4.1523232 3.0387824 6.8663625e-44 25
-6.2858706 -4.1886802 3.0521543 6.8663625e-44 25
-6.2446871 -4.1872058 3.0379887 6.8663625e-44 25
-6.2139487 -4.1925359 3.0288844 6.8663625e-44 25
-6.1670713 -4.1867528 3.0118883 6.8663625e-44 25
-6.1411843 -4.1950159 3.0051219 6.8663625e-44 25
-6.1067648 -4.1972976 2.9941702 6.8663625e-44 25
-6.0017853 -4.1505938 2.9485354 6.8663625e-44 25
-5.9800954 -4.1610537 2.9437435 6.8663625e-44 25
-5.9410892 -4.1593075 2.9304152 6.8663625e-44 25
-5.9008274 -4.156445 2.9164369 6.8663625e-44 25
-5.8658152 -4.1570597 2.9050257 6.8663625e-44 25
-5.8292193 -4.1563458 2.8928065 6.8663625e-44 25
-5.7951617 -4.157239 2.8818231 6.8663625e-44 25
-5.7703023 -4.164578 2.8754015 6.8663625e-44 25
-5.7751226 -4.1933556 2.8837976 6.8663625e-44 25
-5.7649522 -4.2113299 2.8847516 6.8663625e-44 25
-5.7107573 -4.1969671 2.8636575 6.8663625e-44 25
-5.6945486 -4.2103162 2.8615861 6.8663625e-44 25
-5.6522422 -4.2042174 2.8463874 6.8663625e-44 25
-5.6133122 -4.2003751 2.8328507 6.8663625e-44 25
-5.5933089 -4.2105398 2.8288517 6.8663625e-44 25
-5.5564523 -4.20787 2.8163164 6.8663625e-44 25
-5.5251408 -4.2092013 2.8065667 6.8663625e-44 25
-5.4906197 -4.2078977 2.7951634 6.8663625e-44 25
-5.4404507 -4.1943259 2.7757492 6.8663625e-44 25
-5.4298158 -4.2110653 2.7764874 6.8663625e-44 25
-5.3801188 -4.1973433 2.7572327 6.8663625e-44 25
-5.3551497 -4.2026801 2.7506158 6.8663625e-44 25
-5.3298721 -4.2076535 2.7438328 6.8663625e-44 25
-5.2937784 -4.2039142 2.7314608 6.8663625e-44 25
-5.2603002 -4.2020388 2.7204075 6.8663625e-44 25
-5.2289629 -4.201683 2.7104359 6.8663625e-44 25
-5.211132 -4.2120619 2.7074573 6.8663625e-44 25
-5.1697397 -4.2032294 2.6922176 6.8663625e-44 25
-5.152564 -4.2139225 2.6895695 6.8663625e-44 25
-5.1304789 -4.2205281 2.6843626 6.8663625e-44 25
-5.084806 -4.2075195 2.6667821 6.8663625e-44 25
-5.0022187 -4.1634612 2.6297338 6.8663625e-44 25
-4.977684 -4.1673179 2.6231217 6.8663625e-44 25
-4.9427438 -4.1622887 2.6110029 6.8663625e-44 25
-4.9135966 -4.1619406 2.6019144 6.8663625e-44 25
-4.8850203 -4.1619091 2.593106 6.8663625e-44 25
-4.8607469 -4.1654005 2.5865657 6.8663625e-44 25
-4.8361864 -4.1685214 2.5798614 6.8663625e-44 25
-4.8057833 -4.1664515 2.5700207 6.8663625e-44 25
-4.773365 -4.1624384 2.5590718 6.8663625e-44 25
-4.7492523 -4.1655025 2.5525527 6.8663625e-44 25
-4.7261643 -4.1693482 2.5465744 6.8663625e-44 25
-4.6938052 -4.1648536 2.5355783 6.8663625e-44 25
-4.6764097 -4.1735034 2.5326509 6.8663625e-44 25
-4.6350412 -4.1605787 2.5167127 6.8663625e-44 25
-4.6203694 -4.1714516 2.5152462 6.8663625e-44 25
-4.6136332 -4.1895027 2.5181239 6.8663625e-44 25
-4.6068068 -4.2075272 2.5209885 6.8663625e-44 25
-4.5809569 -4.2081323 2.5134513 6.8663625e-44 25
-4.5585718 -4.211792 2.5078008 6.8663625e-44 25
-4.5240397 -4.2040544 2.495441 6.8663625e-44 25
-4.5010152 -4.2068324 2.4894004 6.8663625e-44 25
-4.4772234 -4.2087708 2.4829221 6.8663625e-44 25
-4.4459052 -4.2034669 2.472244 6.8663625e-44 25
-4.4303889 -4.2129798 2.4703393 6.8663625e-44 25
-4.4016404 -4.2098002 2.4610462 6.8663625e-44 25
-4.3708205 -4.2044444 2.4505608 6.8663625e-44 25
-4.3437109 -4.2024713 2.4421237 6.8663625e-44 25
-4.3221188 -4.2056999 2.4367707 6.8663625e-44 25
-4.3032598 -4.2114964 2.4329526 6.8663625e-44 25
-4.2719951 -4.2050056 2.4220996 6.8663625e-44 25
-4.2137284 -4.171567 2.3958526 6.8663625e-44 25
-4.1954823 -4.1774492 2.3922954 6.8663625e-44 25
-4.1666389 -4.172648 2.3826773 6.8663625e-44 25
-4.1560912 -4.1860805 2.3835166 6.8663625e-44 25
-4.1524014 -4.2064767 2.3883243 6.8663625e-44 25
-4.1255245 -4.2033472 2.3798048 6.8663625e-44 25
-4.0960302 -4.1973615 2.3697407 6.8663625e-44 25
-4.085639 -4.2108593 2.3707213 6.8663625e-44 25
-4.061368 -4.2099895 2.3636496 6.8663625e-44 25
-4.0376301 -4.2095299 2.3568664 6.8663625e-44 25
-4.013063 -4.2080622 2.3495767 6.8663625e-44 25
-3.9856646 -4.2034574 2.3405995 6.8663625e-44 25
-3.9732428 -4.2145524 2.3404088 6.8663625e-44 25
-3.9442966 -4.208015 2.3304732 6.8663625e-44 25
-3.9205134 -4.2068105 2.3235557 6.8663625e-44 25
-3.9016819 -4.2108054 2.3195584 6.8663625e-44 25
-3.8735363 -4.2046065 2.3100009 6.8663625e-44 25
-3.8205078 -4.1710401 2.2855172 6.8663625e-44 25
-3.7976654 -4.1701035 2.2790134 6.8663625e-44 25
-3.7819579 -4.176909 2.2767825 6.8663625e-44 25
-3.7585237 -4.1750841 2.2698898 6.8663625e-44 25
-3.73404 -4.1719398 2.262336 6.8663625e-44 25
-3.7073867 -4.1661963 2.2534335 6.8663625e-44 25
-3.6900244 -4.170763 2.2501574 6.8663625e-44 25
-3.6826971 -4.1866674 2.2530181 6.8663625e-44 25
-3.6916006 -4.2211933 2.2658784 6.8663625e-44 25
-3.6644037 -4.214479 2.2566111 6.8663625e-44 25
-3.651144 -4.2236857 2.2559123 6.8663625e-44 25
-3.6230502 -4.2156172 2.2460315 6.8663625e-44 25
-3.611197 -4.2263398 2.2462049 6.8663625e-44 25
-3.5748477 -4.2082295 2.2311096 6.8663625e-44 25
-3.5609775 -4.216404 2.2300076 6.8663625e-44 25
-3.5444036 -4.2213335 2.2272174 6.8663625e-44 25
-3.5213094 -4.2183905 2.2203155 6.8663625e-44 25
-3.499094 -4.2163529 2.2139404 6.8663625e-44 25
-3.4833095 -4.2219677 2.2116222 6.8663625e-44 25
-3.4568162 -4.2144742 2.2024829 6.8663625e-44 25
-3.4420013 -4.2210975 2.2007649 6.8663625e-44 25
-3.4219568 -4.221231 2.1956975 6.8663625e-44 25
-3.4033618 -4.2230487 2.1915455 6.8663625e-44 25
-3.3849227 -4.224966 2.1874826 6.8663625e-44 25
-3.3644807 -4.2242765 2.1821096 6.8663625e-44 25
-3.337043 -4.2146287 2.1721623 6.8663625e-44 25
-3.3294747 -4.2299957 2.1751409 6.8663625e-44 25
-3.3049977 -4.2238221 2.1670725 6.8663625e-44 25
-3.2882526 -4.2274017 2.1640513 6.8663625e-44 25
-3.2588744 -4.2145734 2.1526804 6.8663625e-44 25
-3.2495685 -4.2275934 2.154551 6.8663625e-44 25
-3.2285783 -4.2253661 2.1486773 6.8663625e-44 25
-3.207269 -4.2225804 2.1425643 6.8663625e-44 25
-3.1853428 -4.2188334 2.1360085 6.8663625e-44 25
-3.1746268 -4.2298679 2.1369667 6.8663625e-44 25
-3.1493247 -4.221374 2.1280935 6.8663625e-44 25
-3.1357305 -4.2284565 2.1271114 6.8663625e-44 25
-3.100225 -4.2057905 2.111218 6.8663625e-44 25
-3.0994325 -4.2301183 2.1189494 6.8663625e-44 25
-3.0728173 -4.2191772 2.109036 6.8663625e-44 25
-3.0797107 -4.2542844 2.1221511 6.8663625e-44 25
-3.0770502 -4.276433 2.1287789 6.8663625e-44 25
-3.0794494 -4.3058186 2.1389921 6.8663625e-44 25
-3.0655649 -4.3125482 2.137949 6.8663625e-44 25
-3.074194 -4.3511167 2.1526802 6.8663625e-44 25
-3.0753767 -4.379447 2.1623139 6.8663625e-44 25
-3.0730867 -4.4030409 2.1695931 6.8663625e-44 25
-3.0774982 -4.4364772 2.1817012 6.8663625e-44 25
-3.0711777 -4.4546514 2.1862886 6.8663625e-44 25
-3.0475433 -4.4476728 2.1785555 6.8663625e-44 25
-3.0240355 -4.4406843 2.170866 6.8663625e-44 25
-3.0080807 -4.4446616 2.1685746 6.8663625e-44 25
-2.991761 -4.4480381 2.1660173 6.8663625e-44 25
-2.9702973 -4.4436531 2.1597159 6.8663625e-44 25
-2.944859 -4.4331236 2.1504755 6.8663625e-44 25
-2.926291 -4.4327626 2.1462114 6.8663625e-44 25
-2.9035187 -4.4258833 2.1388311 6.8663625e-44 25
-2.8789296 -4.4160247 2.1300592 6.8663625e-44 25
-2.8612187 -4.4165535 2.1263387 6.8663625e-44 25
-2.8430507 -4.4162755 2.1222618 6.8663625e-44 25
-2.8170455 -4.4036379 2.112289 6.8663625e-44 25
-2.8030522 -4.4096336 2.1112916 6.8663625e-44 25
-2.7732446 -4.3905654 2.0983369 6.8663625e-44 25
-2.7622833 -4.4011793 2.0996063 6.8663625e-44 25
-2.7409556 -4.3952041 2.0929887 6.8663625e-44 25
-2.7194333 -4.3887367 2.0861781 6.8663625e-44 25
-2.6973829 -4.381227 2.0789144 6.8663625e-44 25
-2.6864855 -4.3917518 2.0802357 6.8663625e-44 25
-2.6576915 -4.3728666 2.0676637 6.8663625e-44 25
-2.6408143 -4.3733706 2.0643044 6.8663625e-44 25
-2.6189582 -4.3654833 2.0570197 6.8663625e-44 25
-2.6073987 -4.3746686 2.0578079 6.8663625e-44 25
-2.5825713 -4.3614693 2.0480988 6.8663625e-44 25
-2.5618942 -4.3550529 2.0416195 6.8663625e-44 25
-2.5480664 -4.3601751 2.0405788 6.8663625e-44 25
-2.5243289 -4.3481984 2.0315697 6.8663625e-44 25
-2.5118828 -4.3555436 2.0316198 6.8663625e-44 25
-2.4962482 -4.3573256 2.0290959 6.8663625e-44 25
-2.4681368 -4.33711 2.0163703 6.8663625e-44 25
-2.4487212 -4.3319097 2.0106721 6.8663625e-44 25
-2.4389763 -4.3437681 2.0129139 6.8663625e-44 25
-2.4204285 -4.3399081 2.0078931 6.8663625e-44 25
-2.4016922 -4.3355603 2.0026796 6.8663625e-44 25
-2.3828194 -4.3308115 1.997314 6.8663625e-44 25
-2.3646293 -4.3271527 1.9924837 6.8663625e-44 25
-2.3469245 -4.324244 1.9880302 6.8663625e-44 25
-2.3272779 -4.3175998 1.9818921 6.8663625e-44 25
-2.3120799 -4.3190808 1.9795132 6.8663625e-44 25
-2.2936475 -4.3144064 1.9743412 6.8663625e-44 25
-2.2802305 -4.3190746 1.97347 6.8663625e-44 25
-2.2548232 -4.3008456 1.9621714 6.8663625e-44 25
-2.2467928 -4.3156462 1.9659694 6.8663625e-44 25
-2.2216525 -4.2974682 1.9547716 6.8663625e-44 25
-2.2104907 -4.3061733 1.9558331 6.8663625e-44 25
-2.188622 -4.2939053 1.9473957 6.8663625e-44 25
-2.1699328 -4.2876539 1.9417241 6.8663625e-44 25
-2.156631 -4.291945 1.940852 6.8663625e-44 25
-2.1377096 -4.2849445 1.9348998 6.8663625e-44 25
-2.1239867 -4.2882485 1.933627 6.8663625e-44 25
-2.1046791 -4.2801547 1.9272417 6.8663625e-44 25
-2.0818067 -4.2645516 1.9175137 6.8663625e-44 25
-2.0691197 -4.2696495 1.9171239 6.8663625e-44 25
-2.0582526 -4.2785172 1.9184413 6.8663625e-44 25
-2.0449471 -4.2823234 1.9175044 6.8663625e-44 25
-2.0199146 -4.2613578 1.9055092 6.8663625e-44 25
-2.0067115 -4.2651343 1.9046109 6.8663625e-44 25
-1.9994549 -4.2816143 1.9093959 6.8663625e-44 25
-1.9763294 -4.2640195 1.8990084 6.8663625e-44 25
-1.9606546 -4.2622681 1.8957106 6.8663625e-44 25
-1.9439346 -4.2581139 1.8913702 6.8663625e-44 25
-1.9212102 -4.2405581 1.8811116 6.8663625e-44 25
-1.9144946 -4.2582536 1.8865124 6.8663625e-44 25
-1.895552 -4.2487316 1.8798724 6.8663625e-44 25
-1.8823817 -4.2520156 1.8789238 6.8663625e-44 25
-1.8656456 -4.2471485 1.8743957 6.8663625e-44 25
-1.8532715 -4.2521286 1.874235 6.8663625e-44 25
-1.8309845 -4.2341795 1.8639961 6.8663625e-44 25
-1.8198823 -4.2419319 1.8650985 6.8663625e-44 25
-1.8017141 -4.2331233 1.8589407 6.8663625e-44 25
-1.7948055 -4.2507563 1.864411 6.8663625e-44 25
-1.7743621 -4.2362766 1.8558155 6.8663625e-44 25
-1.7614204 -4.2395344 1.8550172 6.8663625e-44 25
-1.7433203 -4.2302456 1.8487526 6.8663625e-44 25
-1.7266864 -4.2243085 1.8439814 6.8663625e-44 25
-1.7126964 -4.2247128 1.8420014 6.8663625e-44 25
-1.7030141 -4.2357559 1.8446743 6.8663625e-44 25
-1.6810999 -4.2162242 1.8340565 6.8663625e-44 25
-1.6731765 -4.2316666 1.8386743 6.8663625e-44 25
-1.6545064 -4.2198792 1.8314788 6.8663625e-44 25
-1.6401361 -4.2188702 1.8289871 6.8663625e-44 25
-1.6255603 -4.2172294 1.8262427 6.8663625e-44 25
-1.6105467 -4.214334 1.8229767 6.8663625e-44 25
-1.5976418 -4.2168736 1.8220813 6.8663625e-44 25
-1.5787452 -4.2034245 1.8143018 6.8663625e-44 25
-1.5640386 -4.200912 1.8112696 6.8663625e-44 25
-1.5490804 -4.1975937 1.8079118 6.8663625e-44 25
-1.5408807 -4.2126141 1.8124659 6.8663625e-44 25
-1.5212095 -4.1961808 1.803507 6.8663625e-44 25
-1.5088825 -4.1998134 1.8031967 6.8663625e-44 25
-1.4947221 -4.1982832 1.8006876 6.8663625e-44 25
-1.4811254 -4.1982431 1.7988372 6.8663625e-44 25
-1.4669818 -4.1965599 1.7963018 6.8663625e-44 25
-1.4515535 -4.1910572 1.7921532 6.8663625e-44 25
-1.4366344 -4.1868572 1.7885841 6.8663625e-44 25
-1.4257169 -4.1942716 1.7899935 6.8663625e-44 25
-1.4110298 -4.1905546 1.7866689 6.8663625e-44 25
-1.3986957 -4.1937428 1.7863067 6.8663625e-44 25
-1.3832797 -4.1875858 1.7819833 6.8663625e-44 25
-1.3674796 -4.1800561 1.7770993 6.8663625e-44 25
-1.3560255 -4.1857176 1.7778417 6.8663625e-44 25
-1.3402046 -4.1778007 1.7728357 6.8663625e-44 25
-1.3258117 -4.1741452 1.76966 6.8663625e-44 25
-1.3157362 -4.1840682 1.7722564 6.8663625e-44 25
-1.3012522 -4.1799555 1.7689228 6.8663625e-44 25
-1.2879596 -4.1795473 1.767176 6.8663625e-44 25
-1.2708637 -4.1665854 1.7601439 6.8663625e-44 25
-1.2588776 -4.1702051 1.7601372 6.8663625e-44 25
-1.247208 -4.1748838 1.7605916 6.8663625e-44 25
-1.2349466 -4.1775837 1.760226 6.8663625e-44 25
-1.2205278 -4.1728897 1.7567626 6.8663625e-44 25
-1.2058696 -4.1671915 1.7528973 6.8663625e-44 25
-1.1930361 -4.1676679 1.7516481 6.8663625e-44 25
-1.1816427 -4.1731653 1.7525239 6.8663625e-44 25
-1.1656886 -4.1624246 1.7465991 6.8663625e-44 25
-1.1502645 -4.1532812 1.7413679 6.8663625e-44 25
-1.1375865 -4.1538844 1.7402427 6.8663625e-44 25
-1.1290398 -4.1696839 1.7454951 6.8663625e-44 25
-1.1136495 -4.1602077 1.740181 6.8663625e-44 25
-1.1033074 -4.1695142 1.7427402 6.8663625e-44 25
-1.0863014 -4.1534853 1.7347283 6.8663625e-44 25
-1.075645 -4.1615672 1.7368052 6.8663625e-44 25
-1.0607572 -4.1532016 1.7320343 6.8663625e-44 25
-1.046733 -4.1479816 1.7285956 6.8663625e-44 25
-1.0366137 -4.1582236 1.7316149 6.8663625e-44 25
-1.0221413 -4.1509671 1.7273626 6.8663625e-44 25
-1.0068284 -4.1399994 1.7215871 6.8663625e-44 25
-0.99705648 -4.1517529 1.7252758 6.8663625e-44 25
-0.98202676 -4.1415601 1.7198601 6.8663625e-44 25
-0.97070104 -4.1468534 1.7208925 6.8663625e-44 25
-0.95693076 -4.1416321 1.7175771 6.8663625e-44 25
-0.94606757 -4.1489482 1.7194765 6.8663625e-44 25
-0.93167216 -4.1406894 1.7149367 6.8663625e-44 25
-0.92118049 -4.1497183 1.7175726 6.8663625e-44 25
-0.90499079 -4.1329012 1.7095283 6.8663625e-44 25
-0.89507574 -4.1445971 1.713295 6.8663625e-44 25
-0.8788709 -4.1270151 1.7049756 6.8663625e-44 25
-0.87116331 -4.1493297 1.7131528 6.8663625e-44 25
-0.85879278 -4.1496878 1.7122744 6.8663625e-44 25
-0.84445751 -4.1403503 1.707413 6.8663625e-44 25
-0.8321057 -4.140532 1.7064946 6.8663625e-44 25
-0.8222878 -4.1534462 1.7108359 6.8663625e-44 25
-0.80808562 -4.1441989 1.706063 6.8663625e-44 25
-0.79654425 -4.1484504 1.7068636 6.8663625e-44 25
-0.78301179 -4.14223 1.7033713 6.8663625e-44 25
-0.76946425 -4.1356573 1.699752 6.8663625e-44 25
-0.75794935 -4.1399021 1.7005941 6.8663625e-44 25
-0.74319142 -4.1262093 1.6940849 6.8663625e-44 25
-0.73143321 -4.1289196 1.6943275 6.8663625e-44 25
-0.72138005 -4.1414394 1.6986072 6.8663625e-44 25
-0.7091682 -4.1417131 1.6978765 6.8663625e-44 25
-0.69232696 -4.1144128 1.6858621 6.8663625e-44 25
-0.68242037 -4.1280136 1.6906244 6.8663625e-44 25
-0.66894358 -4.120049 1.6865678 6.8663625e-44 25
-0.65810668 -4.1282778 1.6891551 6.8663625e-44 25
-0.64727116 -4.136754 1.6918551 6.8663625e-44 25
-0.63217461 -4.1177301 1.6833245 6.8663625e-44 25
-0.6216203 -4.1280556 1.6868083 6.8663625e-44 25
-0.61047447 -4.1347146 1.6888053 6.8663625e-44 25
-0.59908134 -4.139864 1.6901982 6.8663625e-44 25
-0.58616126 -4.1343851 1.6872666 6.8663625e-44 25
-0.56982833 -4.1040235 1.6742004 6.8663625e-44 25
-0.56012106 -4.1210299 1.6804744 6.8663625e-44 25
-0.54779363 -4.1190128 1.6790028 6.8663625e-44 25
-0.53785717 -4.1352167 1.6849707 6.8663625e-44 25
-0.52328408 -4.1156273 1.6763688 6.8663625e-44 25
-0.50979519 -4.1037736 1.6709369 6.8663625e-44 25
-0.49920374 -4.1151638 1.6749835 6.8663625e-44 25
-0.4875513 -4.118083 1.6755944 6.8663625e-44 25
-0.47683483 -4.1291838 1.6795466 6.8663625e-44 25
-0.46293315 -4.1124921 1.6722091 6.8663625e-44 25
-0.45215261 -4.1233063 1.676071 6.8663625e-44 25
-0.43946627 -4.116786 1.6729002 6.8663625e-44 25
-0.42774785 -4.1191511 1.6733547 6.8663625e-44 25
-0.4159117 -4.1204152 1.6733757 6.8663625e-44 25
-0.4034692 -4.1154985 1.6709011 6.8663625e-44 25
-0.39221475 -4.1226988 1.6733598 6.8663625e-44 25
-0.37893811 -4.108357 1.6670896 6.8663625e-44 25
-0.36803907 -4.1196275 1.6712267 6.8663625e-44 25
-0.35462579 -4.1024961 1.6638567 6.8663625e-44 25
-0.3429144 -4.1044774 1.6642536 6.8663625e-44 25
-0.33179668 -4.1138911 1.667677 6.8663625e-44 25
-0.3190847 -4.1034322 1.6630585 6.8663625e-44 25
-0.3080653 -4.1147008 1.6672599 6.8663625e-44 25
-0.29628521 -4.1162362 1.6675299 6.8663625e-44 25
-0.28376329 -4.1070914 1.6634881 6.8663625e-44 25
-0.27195838 -4.1079078 1.6634953 6.8663625e-44 25
-0.26084197 -4.1196012 1.66792 6.8663625e-44 25
-0.24855788 -4.113018 1.6649585 6.8663625e-44 25
-0.23665245 -4.1122828 1.6643786 6.8663625e-44 25
-0.22404256 -4.0985112 1.6585374 6.8663625e-44 25
-0.21301958 -4.1137805 1.6644617 6.8663625e-44 25
-0.20114776 -4.1134186 1.6640745 6.8663625e-44 25
-0.18978962 -4.1241016 1.6681688 6.8663625e-44 25
-0.17734237 -4.1108918 1.6626124 6.8663625e-44 25
-0.16566451 -4.1148305 1.6640059 6.8663625e-44 25
-0.15303975 -4.0939717 1.655386 6.8663625e-44 25
-0.14219463 -4.1211371 1.6661981 6.8663625e-44 25
-0.12967002 -4.1000681 1.6575222 6.8663625e-44 25
-0.11835095 -4.1166391 1.6640772 6.8663625e-44 25
-0.10629304 -4.108264 1.6605612 6.8663625e-44 25
-0.094590001 -4.1131487 1.6624188 6.8663625e-44 25
-0.082859464 -4.1179852 1.6642704 6.8663625e-44 25
-0.070938729 -4.1133265 1.6622983 6.8663625e-44 25
-0.059096485 -4.1121836 1.661761 6.8663625e-44 25
-0.047188655 -4.1046796 1.6586668 6.8663625e-44 25
-0.035513483 -4.1190658 1.6644322 6.8663625e-44 25
-0.023651041 -4.1151567 1.6628182 6.8663625e-44 25
-0.011802182 -4.1080174 1.6599129 6.8663625e-44 25
5.4448678e-06 -4.103775 1.6581918 6.8663625e-44 25
0.011846685 -4.1197023 1.6646345 6.8663625e-44 25
0.02367755 -4.1178679 1.6639138 6.8663625e-44 25
0.035405956 -4.1053309 1.6588821 6.8663625e-44 25
