# .PCD v0.7 - Point Cloud Data file format
VERSION 0.7
FIELDS x y z intensity ring
SIZE 4 4 4 4 2
TYPE F F F F U
COUNT 1 1 1 1 1
WIDTH 1036
HEIGHT 1
VIEWPOINT 0 0 0 1 0 0 0
POINTS 1036
DATA ascii
1.2207843 5.5749931 1.8544848 0 22
1.2038962 5.574501 1.8531625 0 22
1.1886209 5.5814714 1.8543361 0 22
1.1716586 5.5805082 1.8528898 0 22
1.1531807 5.5720959 1.8489884 0 22
1.1341953 5.5608511 1.8441677 0 22
1.1245161 5.5954804 1.8545724 0 22
1.1061963 5.5874147 1.8508376 0 22
1.0902185 5.5910149 1.8509846 0 22
1.0729779 5.5880532 1.8489754 0 22
1.0579107 5.5963979 1.8507227 0 22
1.0386045 5.58213 1.8450093 0 22
1.0218427 5.5811982 1.8437231 0 22
1.0063428 5.5871444 1.8447242 0 22
0.98819798 5.5782633 1.8408464 0 22
0.97334397 5.5878749 1.8430876 0 22
0.95659977 5.5866838 1.8417802 0 22
0.94122958 5.5935197 1.8431343 0 22
0.92267007 5.5812106 1.8381969 0 22
0.90799779 5.592299 1.8409816 0 22
0.88872963 5.5748715 1.834396 0 22
0.87503618 5.592319 1.8393019 0 22
0.85769033 5.5865498 1.836586 0 22
0.83911771 5.5723119 1.8311048 0 22
0.8245092 5.5842595 1.8342445 0 22
0.80743569 5.5795617 1.8319316 0 22
0.79297686 5.5930157 1.835593 0 22
0.77522814 5.5832477 1.8316483 0 22
0.75834024 5.5792956 1.8296292 0 22
0.74411917 5.5951257 1.8341115 0 22
0.72610444 5.5824056 1.8292501 0 22
0.71209264 5.6004868 1.8344966 0 22
0.69354069 5.5827756 1.8280346 0 22
0.67815757 5.5902371 1.8298321 0 22
0.66018921 5.5761352 1.8245875 0 22
0.64320421 5.5697412 1.8218827 0 22
0.6278832 5.5777016 1.8238888 0 22
0.61358035 5.595274 1.8290507 0 22
0.59593236 5.5823727 1.8242658 0 22
0.58132899 5.5979714 1.8288097 0 22
0.56490064 5.596292 1.827723 0 22
0.54871446 5.5968876 1.827395 0 22
0.53135037 5.585042 1.8230212 0 22
0.51497692 5.5830951 1.821895 0 22
0.49940959 5.5899496 1.8236558 0 22
0.48390266 5.5978651 1.8257769 0 22
0.46652922 5.5838933 1.820775 0 22
0.45072266 5.5882492 1.8217654 0 22
0.43525693 5.5972157 1.824273 0 22
0.4182767 5.5865502 1.8203976 0 22
0.40244654 5.5909085 1.8214334 0 22
0.38516781 5.5745697 1.8157423 0 22
0.3694692 5.5805759 1.8173451 0 22
0.35395342 5.5899196 1.8200492 0 22
0.33821857 5.5964336 1.821846 0 22
0.32139328 5.5845561 1.8176712 0 22
0.30571246 5.5922632 1.8198861 0 22
0.28915218 5.5837464 1.8168367 0 22
0.27343419 5.5913529 1.8190484 0 22
0.25718009 5.5881639 1.817763 0 22
0.24062851 5.5775552 1.8140795 0 22
0.22479565 5.5831809 1.8156916 0 22
0.20845187 5.5759063 1.8131236 0 22
0.19234885 5.574296 1.8124126 0 22
0.17701423 5.5965858 1.819487 0 22
0.16101278 5.6000428 1.8204528 0 22
0.14467779 5.5912752 1.8174599 0 22
0.1286293 5.5926671 1.8177848 0 22
0.11258861 5.594739 1.8183455 0 22
0.096524298 5.596024 1.8186655 0 22
0.080390871 5.5929041 1.8175689 0 22
0.064234182 5.5860858 1.8152856 0 22
0.048153047 5.5833592 1.8143471 0 22
0.032246355 5.6081071 1.8223515 0 22
0.016100381 5.5989318 1.8193473 0 22
7.4236814e-06 5.5951991 1.8181269 0 22
-0.0160856 5.598959 1.8193561 0 22
-0.032084167 5.5824761 1.8140227 0 22
-0.048185762 5.5888724 1.8161386 0 22
-0.064439163 5.605206 1.8214989 0 22
-0.08036346 5.5920296 1.8172847 0 22
-0.096466057 5.5935087 1.8178478 0 22
-0.11238825 5.5855193 1.8153489 0 22
-0.12847885 5.5867705 1.8158681 0 22
-0.14491801 5.6011333 1.8206644 0 22
-0.16094296 5.5981312 1.8198313 0 22
-0.1767423 5.5884576 1.8168442 0 22
-0.19294836 5.5921001 1.8182013 0 22
-0.20911239 5.5939727 1.818998 0 22
-0.22505689 5.5900378 1.8179214 0 22
-0.24131611 5.5938382 1.8193753 0 22
-0.25720894 5.5891137 1.8180717 0 22
-0.27312496 5.5853333 1.8170898 0 22
-0.28983617 5.5972424 1.8212278 0 22
-0.30612919 5.6001587 1.8224553 0 22
-0.32269871 5.6074986 1.8251383 0 22
-0.33865729 5.60394 1.8242893 0 22
-0.35427719 5.5952682 1.8217903 0 22
-0.37012821 5.5907545 1.8206595 0 22
-0.38722014 5.6044898 1.8254875 0 22
-0.40258116 5.5929866 1.8221099 0 22
-0.41906235 5.5972428 1.8238815 0 22
-0.43443146 5.5867925 1.8208755 0 22
-0.45130566 5.5956626 1.8241818 0 22
-0.46779022 5.5991654 1.8257544 0 22
-0.48363411 5.5949321 1.8248198 0 22
-0.49985018 5.5950484 1.8253188 0 22
-0.51633495 5.5979805 1.8267521 0 22
-0.53170508 5.5889273 1.824289 0 22
-0.54825199 5.5923228 1.8259041 0 22
-0.56576484 5.6050024 1.8305675 0 22
-0.58111608 5.5960655 1.8281866 0 22
-0.59913242 5.6124902 1.8341074 0 22
-0.61289418 5.5891538 1.8270495 0 22
-0.6294924 5.5921302 1.8286064 0 22
-0.64668953 5.6000519 1.8317969 0 22
-0.6614117 5.5865879 1.8280071 0 22
-0.67804217 5.5894103 1.8295608 0 22
-0.69694632 5.6103115 1.8370504 0 22
-0.71023154 5.585968 1.8297403 0 22
-0.72748512 5.5931363 1.8327657 0 22
-0.74414754 5.5954528 1.834218 0 22
-0.75984663 5.5904894 1.8332994 0 22
-0.77746713 5.5994821 1.8369735 0 22
-0.79343021 5.5963202 1.8366768 0 22
-0.80933028 5.5927587 1.8362639 0 22
-0.82803231 5.6082239 1.8421153 0 22
-0.84148312 5.5881205 1.8362989 0 22
-0.85922116 5.5966196 1.8398957 0 22
-0.87575835 5.5970316 1.8408511 0 22
-0.89088839 5.5885086 1.8388824 0 22
-0.90849209 5.595437 1.8420138 0 22
-0.92539382 5.5977788 1.8436528 0 22
-0.94438022 5.6123343 1.849333 0 22
-0.95808041 5.5954204 1.8446594 0 22
-0.97644055 5.6057405 1.8489795 0 22
-0.99064177 5.5921445 1.8454266 0 22
-1.0086937 5.6002817 1.849061 0 22
-1.0253605 5.6004958 1.8500969 0 22
-1.0422697 5.6019115 1.8515468 0 22
-1.0601094 5.6081109 1.8545952 0 22
-1.0754446 5.6009798 1.8532516 0 22
-1.0918356 5.5993872 1.8537554 0 22
-1.1112338 5.6129375 1.859291 0 22
-1.1259973 5.6029277 1.8570397 0 22
-1.1426858 5.6025548 1.8579969 0 22
-1.1987017 5.7921286 1.9220008 0 22
-1.2170875 5.7969584 1.9247563 0 22
-1.2377423 5.8122091 1.9309933 0 22
-1.2539474 5.8063316 1.9302301 0 22
-1.271701 5.8075891 1.9318553 0 22
-1.2879343 5.8018646 1.9311745 2.315788e+27 22
-1.4714394 6.5396104 2.1781349 4.631576e+27 22
-1.4708036 6.450161 2.1497414 4.631576e+27 22
-1.4740003 6.379528 2.1276038 4.631576e+27 22
-1.4736956 6.2956557 2.1010358 4.631576e+27 22
-1.4739159 6.2160335 2.0758691 4.631576e+27 22
-1.4757819 6.1451702 2.053612 4.631576e+27 22
-1.4766535 6.0718832 2.0305307 4.631576e+27 22
-1.4753085 5.991302 2.004993 4.631576e+27 22
-1.4797008 5.9356017 1.9877679 4.631576e+27 22
-1.4775021 5.8550282 1.9621987 4.631576e+27 22
-1.4782586 5.7878523 1.941102 4.631576e+27 22
-1.4752402 5.7075624 1.915589 4.631576e+27 22
-1.4779307 5.6508837 1.8979841 4.631576e+27 22
-1.4782102 5.5863109 1.8777151 4.631576e+27 22
-1.480391 5.5302272 1.8602864 4.631576e+27 22
-1.4808892 5.4691076 1.8411509 4.631576e+27 22
-1.4807181 5.406826 1.8216093 4.631576e+27 22
-1.4798393 5.3432832 1.8016268 4.631576e+27 22
-1.4837841 5.298275 1.7878816 4.631576e+27 22
-1.4814471 5.2319741 1.7669382 4.631576e+27 22
-1.484982 5.187531 1.7533633 4.631576e+27 22
-1.4858586 5.1347651 1.7369648 4.631576e+27 22
-1.483393 5.0716052 1.7170346 4.631576e+27 22
-1.4819169 5.0130363 1.6986407 4.631576e+27 22
-1.4819919 4.9607959 1.6823758 4.631576e+27 22
-1.4882662 4.9300866 1.6734051 4.631576e+27 22
-1.4836434 4.8641944 1.65248 4.631576e+27 22
-1.4859024 4.8218904 1.6395526 4.631576e+27 22
-1.4845799 4.7688508 1.6229621 4.631576e+27 22
-1.4827646 4.7152224 1.6061547 4.631576e+27 22
-1.4867473 4.6808295 1.5958886 4.631576e+27 22
-1.4855062 4.6307473 1.5802627 4.631576e+27 22
-1.4848366 4.5833259 1.5655298 4.631576e+27 22
-1.4875898 4.547205 1.554646 4.631576e+27 22
-1.487043 4.5017071 1.5405457 4.631576e+27 22
-1.4970471 4.4886322 1.5375375 4.631576e+27 22
-1.5079571 4.4784145 1.5355159 4.631576e+27 22
-1.5245032 4.4848881 1.5392315 4.631576e+27 22
-1.5377115 4.4814315 1.5395557 4.631576e+27 22
-1.5556605 4.4916444 1.5445939 4.631576e+27 22
-1.5729241 4.4996266 1.5488873 4.631576e+27 22
-1.5775701 4.4716153 1.5407995 4.631576e+27 22
-1.5935785 4.4759445 1.5438632 4.631576e+27 22
-1.6140558 4.4925513 1.5511851 4.631576e+27 22
-1.6274457 4.4892282 1.5516464 4.631576e+27 22
-1.6443131 4.4953876 1.5554024 4.631576e+27 22
-1.6562619 4.4880271 1.5544964 4.631576e+27 22
-1.6721245 4.4912243 1.5572621 4.631576e+27 22
-1.688009 4.4943399 1.5600182 4.631576e+27 22
-1.7070721 4.5057077 1.5656607 4.631576e+27 22
-1.7118613 4.4794445 1.558238 4.631576e+27 22
-1.7283146 4.4838071 1.5614773 4.631576e+27 22
-1.7433463 4.4843545 1.5634063 4.631576e+27 22
-1.7591038 4.4866586 1.565966 4.631576e+27 22
-1.7741386 4.4870119 1.5678626 4.631576e+27 22
-1.7875916 4.4833069 1.5683569 4.631576e+27 22
-1.8050153 4.4894543 1.5723158 4.631576e+27 22
-1.825361 4.5026226 1.5787587 4.631576e+27 22
-1.8375536 4.495543 1.5781218 4.631576e+27 22
-1.8440536 4.4746795 1.5726519 4.631576e+27 22
-1.8593502 4.4752402 1.5747207 4.631576e+27 22
-1.8809701 4.4908023 1.5820925 4.631576e+27 22
-1.8966823 4.4920378 1.5844418 4.631576e+27 22
-1.9043627 4.4742956 1.5801079 4.631576e+27 22
-1.929885 4.4983354 1.5905501 4.631576e+27 22
-1.9381261 4.481946 1.5867182 4.631576e+27 22
-1.9571047 4.4903626 1.5916827 4.631576e+27 22
-1.9784437 4.5039339 1.5985024 4.631576e+27 22
-1.9890026 4.4928555 1.596593 4.631576e+27 22
-2.00279 4.4890971 1.5972965 4.631576e+27 22
-2.0191782 4.4910927 1.6000649 4.631576e+27 22
-2.0328751 4.4870286 1.600692 4.631576e+27 22
-2.0504906 4.4915209 1.6043906 4.631576e+27 22
-2.0667558 4.4929214 1.6070062 4.631576e+27 22
-2.0800698 4.487844 1.6073219 4.631576e+27 22
-2.0991085 4.4950118 1.6120433 4.631576e+27 22
-2.1142423 4.4936838 1.6137397 4.631576e+27 22
-2.1298189 4.4932199 1.6157649 4.631576e+27 22
-2.148561 4.4993005 1.6201656 4.631576e+27 22
-2.1560745 4.4818611 1.6161106 4.631576e+27 22
-2.1749141 4.487957 1.6205562 4.631576e+27 22
-2.1936643 4.4936905 1.6248965 4.631576e+27 22
-2.2099068 4.4941497 1.6273527 4.631576e+27 22
-2.2259085 4.4940248 1.6296175 4.631576e+27 22
-2.2337706 4.4774942 1.6259447 4.631576e+27 22
-2.2606127 4.4988804 1.6360636 4.631576e+27 22
-2.2764297 4.4980855 1.6381471 4.631576e+27 22
-2.2879565 4.4887915 1.6371505 4.631576e+27 22
-2.3051591 4.490593 1.6402174 4.631576e+27 22
-2.322161 4.491888 1.6431215 4.631576e+27 22
-2.3381569 4.4911389 1.6452992 4.631576e+27 22
-2.3588059 4.4991817 1.6507225 4.631576e+27 22
-2.369087 4.487381 1.6488843 4.631576e+27 22
-2.3875203 4.4909835 1.6527228 4.631576e+27 22
-2.4075603 4.4974432 1.6576399 4.631576e+27 22
-2.4296618 4.5075436 1.6639298 4.631576e+27 22
-2.4422009 4.4997921 1.6636527 4.631576e+27 22
-2.4460433 4.4761362 1.6574991 4.631576e+27 22
-2.479562 4.5066428 1.6714278 4.631576e+27 22
-2.4905798 4.4960217 1.6701368 4.631576e+27 22
-2.5020185 4.4862018 1.6691535 4.631576e+27 22
-2.5303922 4.506578 1.6794338 4.631576e+27 22
-2.5391729 4.4919233 1.6766856 4.631576e+27 22
-2.5551817 4.4900689 1.6787277 4.631576e+27 22
-2.5745611 4.4940243 1.6829664 4.631576e+27 22
-2.5970006 4.5031362 1.689167 4.631576e+27 22
-2.6093576 4.4946613 1.6887945 4.631576e+27 22
-2.626807 4.4949141 1.6917192 4.631576e+27 22
-2.6388648 4.4858985 1.6911738 4.631576e+27 22
-2.6650455 4.5007529 1.6996547 4.631576e+27 22
-2.6739373 4.4863067 1.6970946 4.631576e+27 22
-2.7041848 4.5075455 1.7080622 4.631576e+27 22
-2.7159483 4.497798 1.7073196 4.631576e+27 22
-2.7313859 4.4941206 1.7088968 4.631576e+27 22
-2.7575045 4.5078506 1.7171242 4.631576e+27 22
-2.7664831 4.493463 1.7146657 4.631576e+27 22
-2.7903697 4.5032167 1.721441 4.631576e+27 22
-2.8068883 4.5009294 1.7236434 4.631576e+27 22
-2.8155327 4.486022 1.7210267 4.631576e+27 22
-2.8416085 4.4987984 1.7290547 4.631576e+27 22
-2.8604536 4.4999352 1.7326442 4.631576e+27 22
-2.8678367 4.483036 1.7293041 4.631576e+27 22
-2.8976169 4.5010362 1.7394531 4.631576e+27 22
-2.9197721 4.5069361 1.7449692 4.631576e+27 22
-2.9273224 4.4902549 1.7417611 4.631576e+27 22
-2.9467828 4.4918313 1.745651 4.631576e+27 22
-2.9706006 4.4998837 1.7520913 4.631576e+27 22
-2.9877837 4.4977417 1.7545937 4.631576e+27 22
-3.0080884 4.5001898 1.7589145 4.631576e+27 22
-3.0201621 4.4902635 1.7584205 4.631576e+27 22
-3.036947 4.4873137 1.7606764 4.631576e+27 22
-3.0583124 4.4910188 1.765572 4.631576e+27 22
-3.0823698 4.4984994 1.7719885 4.631576e+27 22
-3.099462 4.495677 1.7743785 4.631576e+27 22
-3.1158333 4.4917407 1.7763524 4.631576e+27 22
-3.1373866 4.4951682 1.7812667 4.631576e+27 22
-3.1663499 4.508996 1.7903452 4.631576e+27 22
-3.1777461 4.4976811 1.7894717 4.631576e+27 22
-3.2009914 4.5030622 1.7952659 4.631576e+27 22
-3.2211957 4.5040145 1.7993294 4.631576e+27 22
-3.2352228 4.4962587 1.7999383 4.631576e+27 22
-3.2586839 4.5015163 1.8057852 4.631576e+27 22
-3.2746503 4.4963069 1.8074638 4.631576e+27 22
-3.2958322 4.4981656 1.8120115 4.631576e+27 22
-3.3204103 4.5044956 1.8183985 4.631576e+27 22
-3.3378997 4.5010767 1.8208838 4.631576e+27 22
-3.3619747 4.5064116 1.8269438 4.631576e+27 22
-3.3813169 4.5052614 1.83041 4.631576e+27 22
-3.3982344 4.5007982 1.8325574 4.631576e+27 22
-3.4227197 4.5062356 1.8387693 4.631576e+27 22
-3.4352787 4.495883 1.8385664 4.631576e+27 22
-3.4590719 4.5001516 1.8443702 4.631576e+27 22
-3.4818637 4.5029569 1.849614 4.631576e+27 22
-3.5063732 4.5078192 1.8557434 4.631576e+27 22
-3.5290859 4.5102091 1.8608954 4.631576e+27 22
-3.5512054 4.5116973 1.8657132 4.631576e+27 22
-3.5677378 4.5059919 1.8675869 4.631576e+27 22
-3.5825856 4.4981184 1.8685837 4.631576e+27 22
-3.6020358 4.4959607 1.8719804 4.631576e+27 22
-3.6300616 4.5043478 1.8798093 4.631576e+27 22
-4.3854613 5.4097834 2.2629278 4.631576e+27 22
-4.4149618 5.4142876 2.2701106 4.631576e+27 22
-4.4359064 5.4081597 2.2728779 4.631576e+27 22
-4.4275885 5.366487 2.2607031 4.631576e+27 22
-4.4464426 5.357893 2.2624574 4.631576e+27 22
-4.4736214 5.3592229 2.2684393 4.631576e+27 22
-4.4901061 5.3476515 2.2689948 4.631576e+27 22
-4.5199728 5.3519101 2.2763047 4.631576e+27 22
-4.5407062 5.3452163 2.2789993 4.631576e+27 22
-4.5773549 5.3570762 2.2896559 4.631576e+27 22
-4.6876235 5.4543066 2.3369622 4.631576e+27 22
-4.7360401 5.4787064 2.3532393 4.631576e+27 22
-4.7620792 5.4769306 2.3583457 4.631576e+27 22
-4.7947574 5.4826083 2.3667152 4.631576e+27 22
-4.8272233 5.4878201 2.3749447 4.631576e+27 22
-4.8679109 5.5021052 2.3871722 4.631576e+27 22
-4.9030714 5.5098534 2.3966384 4.631576e+27 22
-4.9513936 5.5320554 2.4124761 4.631576e+27 22
-4.9835954 5.5359316 2.420403 4.631576e+27 22
-5.0159874 5.5398088 2.4283917 4.631576e+27 22
-5.0580597 5.5541048 2.4410214 4.631576e+27 22
-5.0972834 5.5649605 2.4522212 4.631576e+27 22
-5.1367402 5.5757756 2.4634829 4.631576e+27 22
-5.1863179 5.5972209 2.4795337 4.631576e+27 22
-5.2135444 5.5942655 2.4848528 4.631576e+27 22
-5.2447782 5.595448 2.4920638 4.631576e+27 22
-5.305902 5.6281495 2.5134099 4.631576e+27 22
-5.3484845 5.6407471 2.5258906 4.631576e+27 22
-5.3853087 5.6469865 2.5356054 4.631576e+27 22
-5.4337425 5.6650815 2.5507326 4.631576e+27 22
-5.4565783 5.6562557 2.5538101 4.631576e+27 22
-5.5138984 5.6828928 2.5729816 4.631576e+27 22
-5.5680327 5.7057796 2.5905793 4.631576e+27 22
-5.6102076 5.7160363 2.6025467 4.631576e+27 22
-5.6474652 5.7210107 2.6121914 4.631576e+27 22
-5.6957202 5.7368183 2.6268735 4.631576e+27 22
-5.732985 5.7412529 2.6364384 4.631576e+27 22
-5.787107 5.7622328 2.6537001 4.631576e+27 22
-5.8329291 5.7745662 2.6670899 4.631576e+27 22
-5.8845401 5.7922649 2.6830654 4.631576e+27 22
-5.9317603 5.8052707 2.6969764 4.631576e+27 22
-5.9839134 5.8227324 2.713068 4.631576e+27 22
-6.0257282 5.8297963 2.7244182 4.631576e+27 22
-6.0938215 5.8618593 2.7475758 4.631576e+27 22
-6.1327896 5.8654995 2.7575331 4.631576e+27 22
-6.1775947 5.8744464 2.7700756 4.631576e+27 22
-6.2264504 5.8869176 2.7843838 4.631576e+27 22
-6.2731695 5.8970327 2.7976847 4.631576e+27 22
-6.3349538 5.9209061 2.8176377 4.631576e+27 22
-6.3927617 5.9406018 2.835743 4.631576e+27 22
-6.4339552 5.9445109 2.8464248 4.631576e+27 22
-6.5015035 5.972373 2.8687024 4.631576e+27 22
-6.5568328 5.9885411 2.8855088 4.631576e+27 22
-6.617548 6.0091982 2.9046149 4.631576e+27 22
-6.67487 6.0263362 2.9221604 4.631576e+27 22
-6.721046 6.033051 2.9347718 4.631576e+27 22
-6.7966189 6.0657029 2.960146 4.631576e+27 22
-6.8395643 6.0688033 2.9712405 4.631576e+27 22
-6.8999515 6.087029 2.989861 4.631576e+27 22
-6.9723353 6.1153378 3.013597 4.631576e+27 22
-7.02039 6.1218739 3.0267496 4.631576e+27 22
-7.0900869 6.1468649 3.0491686 4.631576e+27 22
-7.1659093 6.1766124 3.0741291 4.631576e+27 22
-7.2237229 6.1903448 3.091285 4.631576e+27 22
-7.2921729 6.2127399 3.1129224 4.631576e+27 22
-7.3425636 6.219337 3.1267896 4.631576e+27 22
-7.4106688 6.2405305 3.1481404 4.631576e+27 22
-7.4859791 6.2672625 3.1724675 4.631576e+27 22
-7.5569086 6.2897887 3.1948519 4.631576e+27 22
-7.6186042 6.3041596 3.2132611 4.631576e+27 22
-7.6997147 6.3340802 3.2397788 4.631576e+27 22
-7.7694149 6.3540626 3.2614081 4.631576e+27 22
-7.8399897 6.3742623 3.283329 4.631576e+27 22
-7.9156871 6.3981037 3.3073153 4.631576e+27 22
-7.993691 6.423254 3.3321791 3.4736819e+27 22
-8.0645838 6.2544456 3.3162706 4.631576e+27 22
-8.053093 6.2085476 3.3041937 4.631576e+27 22
-8.0257702 6.1507845 3.2857156 4.631576e+27 22
-8.0270987 6.1152601 3.2790504 4.631576e+27 22
-8.0076017 6.0641117 3.263952 4.631576e+27 22
-7.9882326 6.0133939 3.2489986 4.631576e+27 22
-7.9690032 5.9631109 3.2341931 4.631576e+27 22
-7.9584379 5.9195981 3.2229865 4.631576e+27 22
-7.9442539 5.8736563 3.210392 4.631576e+27 22
-7.9321113 5.8294911 3.1987007 4.631576e+27 22
-7.9189668 5.7848496 3.1866815 4.631576e+27 22
-7.9005389 5.7366343 3.1726177 4.631576e+27 22
-7.8843007 5.6903062 3.1595159 4.631576e+27 22
-7.8694901 5.6452866 3.1470654 4.631576e+27 22
-7.8693638 5.6110082 3.1405523 4.631576e+27 22
-7.8394136 5.5557342 3.1222138 4.631576e+27 22
-7.8410516 5.5231071 3.1165307 4.631576e+27 22
-7.8278909 5.4802418 3.1050262 4.631576e+27 22
-7.8191471 5.4406977 3.0953422 4.631576e+27 22
-7.7999225 5.3941135 3.0815814 4.631576e+27 22
-7.7808518 5.3479304 3.0679612 4.631576e+27 22
-7.7685008 5.3066287 3.0570645 4.631576e+27 22
-7.7594318 5.2677879 3.0475247 4.631576e+27 22
-7.7661276 5.2397871 3.0442269 4.631576e+27 22
-7.8793049 5.2832546 3.0826259 4.631576e+27 22
-8.0171957 5.3423734 3.1305523 4.631576e+27 22
-8.1383591 5.3893981 3.1718025 4.631576e+27 22
-8.2750034 5.4457364 3.2189436 3.4736819e+27 22
-11.335777 4.4633255 3.9587357 4.631576e+27 22
-11.330732 4.4237652 3.952517 4.631576e+27 22
-11.323351 4.3834176 3.9455311 4.631576e+27 22
-11.315464 4.3430085 3.9384172 4.631576e+27 22
-11.303269 4.3010941 3.9298534 4.631576e+27 22
-11.299252 4.2624259 3.9241807 4.631576e+27 22
-11.298175 4.2249646 3.9195733 4.631576e+27 22
-11.275514 4.1795888 3.9075277 4.631576e+27 22
-11.283237 4.1456037 3.9060588 4.631576e+27 22
-11.281624 4.1082458 3.9013965 4.631576e+27 22
-11.270242 4.0674496 3.8934011 4.631576e+27 22
-11.272659 4.0317388 3.8902171 4.631576e+27 22
-11.24968 3.9870863 3.8783154 4.631576e+27 22
-11.258422 3.9537971 3.8773956 4.631576e+27 22
-11.253365 3.9157231 3.8717618 4.631576e+27 22
-11.228469 3.8709152 3.8593526 4.631576e+27 22
-11.246183 3.8408914 3.8616307 4.631576e+27 22
-11.236011 3.8013897 3.8543696 4.631576e+27 22
-11.222798 3.7610049 3.8461134 4.631576e+27 22
-11.205929 3.7195597 3.8366523 4.631576e+27 22
-11.230713 3.6919837 3.8414888 4.631576e+27 22
-11.212274 3.6502454 3.8315771 4.631576e+27 22
-11.209628 3.6137829 3.8271077 4.631576e+27 22
-11.203772 3.5763781 3.8215828 4.631576e+27 22
-11.191311 3.536988 3.8138487 4.631576e+27 22
-11.189103 3.5009494 3.8096516 4.631576e+27 22
-11.18223 3.4635429 3.8039062 4.631576e+27 22
-11.179542 3.4275253 3.7996244 4.631576e+27 22
-11.171341 3.3899145 3.7935102 4.631576e+27 22
-11.154742 3.349894 3.7845886 4.631576e+27 22
-11.17186 3.3200576 3.7871428 4.631576e+27 22
-11.148768 3.2783501 3.7761052 4.631576e+27 22
-11.172563 3.2504864 3.7809844 4.631576e+27 22
-11.148103 3.2086442 3.7695699 4.631576e+27 22
-11.140322 3.1717601 3.7638407 4.631576e+27 22
-11.132751 3.1350403 3.7582231 4.631576e+27 22
-11.148169 3.1048257 3.7603993 4.631576e+27 22
-11.135317 3.0667856 3.7530756 4.631576e+27 22
-11.129275 3.0307338 3.7480879 4.631576e+27 22
-11.125661 2.9954264 3.7439554 4.631576e+27 22
-11.118319 2.9592023 3.7386072 4.631576e+27 22
-11.114602 2.9240296 3.7345157 4.631576e+27 22
-11.113468 2.8896031 3.731329 4.631576e+27 22
-11.111069 2.8549089 3.7277524 4.631576e+27 22
-11.110913 2.8208499 3.7249649 4.631576e+27 22
-11.110594 2.7867999 3.7221568 4.631576e+27 22
-11.085788 2.7467341 3.7111864 4.631576e+27 22
-11.097255 2.7157445 3.7123969 4.631576e+27 22
-11.096459 2.6817691 3.709537 4.631576e+27 22
-11.089746 2.6464329 3.7047341 4.631576e+27 22
-11.096232 2.6142941 3.7043757 4.631576e+27 22
-11.07646 2.5760543 3.6952877 4.631576e+27 22
-11.076406 2.5425055 3.6928167 4.631576e+27 22
-11.077346 2.5092261 3.6907101 4.631576e+27 22
-11.070303 2.4742005 3.6859787 4.631576e+27 22
-11.06185 2.4389496 3.680815 4.631576e+27 22
-11.064041 2.4061065 3.6792276 4.631576e+27 22
-11.070755 2.3742621 3.6791759 4.631576e+27 22
-8.9745512 1.8977395 2.9807134 4.631576e+27 22
-8.9637251 1.8685502 2.9753215 4.631576e+27 22
-8.9835443 1.8457545 2.9801269 4.631576e+27 22
-8.9643469 1.8149722 2.9720156 4.631576e+27 22
-8.9780664 1.7909021 2.9748452 4.631576e+27 22
-8.991415 1.7667081 2.9775734 4.631576e+27 22
-9.0466185 1.7505635 2.9941754 4.631576e+27 22
-9.1167479 1.7369637 3.0157218 4.631576e+27 22
-9.1807308 1.7218231 3.0352371 4.631576e+27 22
-9.2326164 1.7040982 3.0507588 4.631576e+27 22
-9.23487 1.6770808 3.0498981 4.631576e+27 22
-9.2437105 1.6512552 3.0512376 4.631576e+27 22
-9.2367439 1.6226286 3.0473862 4.631576e+27 22
-9.2422056 1.5962173 3.0476618 4.631576e+27 22
-9.2389145 1.5683149 3.0450773 4.631576e+27 22
-9.2388077 1.54099 3.0435698 4.631576e+27 22
-9.2353344 1.5131402 3.0409803 4.631576e+27 22
-9.244771 1.4874136 3.0426672 4.631576e+27 22
-9.2031898 1.4535986 3.0275941 4.631576e+27 22
-9.2120724 1.4278752 3.0291536 4.631576e+27 22
-9.2144947 1.4011413 3.0286133 4.631576e+27 22
-9.2044106 1.372552 3.0239899 4.631576e+27 22
-9.1952906 1.3441859 3.019712 4.631576e+27 22
-9.2143621 1.3199346 3.0247166 4.631576e+27 22
-9.2072811 1.2919239 3.0211606 4.631576e+27 22
-9.2120619 1.265606 3.021523 4.631576e+27 22
-9.2065926 1.2379035 3.0185497 4.631576e+27 22
-9.2140484 1.2119538 3.0198398 4.631576e+27 22
-9.2021971 1.1834975 3.014828 4.631576e+27 22
-9.2107773 1.1576989 3.0165367 4.631576e+27 22
-9.1969805 1.129122 3.0109429 4.631576e+27 22
-9.1976194 1.1023748 3.0101023 4.631576e+27 22
-9.2099295 1.0770072 3.0131054 4.631576e+27 22
-9.2036409 1.0494652 3.0100489 4.631576e+27 22
-9.213891 1.0238149 3.0124261 4.631576e+27 22
-9.1933241 0.99478763 3.0047545 4.631576e+27 22
-9.2100983 0.96982855 3.0093136 4.631576e+27 22
-9.2024937 0.94229198 3.0059316 4.631576e+27 22
-9.2136469 0.91668159 3.0087016 4.631576e+27 22
-9.217001 0.89026833 3.0089488 4.631576e+27 22
-9.2183161 0.86365944 3.0085552 4.631576e+27 22
-9.2149153 0.83662921 3.0066481 4.631576e+27 22
-9.2174683 0.81015593 3.0067089 4.631576e+27 22
-9.1905794 0.78117877 2.9971931 4.631576e+27 22
-9.2073669 0.75595635 3.0019467 4.631576e+27 22
-9.2046843 0.72910714 3.0003762 4.631576e+27 22
-9.2213812 0.70376456 3.0051472 4.631576e+27 22
-9.2148027 0.67662805 3.0023572 4.631576e+27 22
-9.2108974 0.64972937 3.0004637 4.631576e+27 22
-9.2164345 0.62350285 3.0016713 4.631576e+27 22
-9.2066116 0.59625989 2.9979017 4.631576e+27 22
-9.2122698 0.57004148 2.9991982 4.631576e+27 22
-9.2006922 0.54278308 2.9949086 4.631576e+27 22
-9.2210131 0.51739031 3.0010266 4.631576e+27 22
-9.2026701 0.48983094 2.9945862 4.631576e+27 22
-9.2114 0.46374846 2.9969811 4.631576e+27 22
-9.2179108 0.43751797 2.9986777 4.631576e+27 22
-9.235836 0.41176614 3.0041115 4.631576e+27 22
-9.2600765 0.38618121 3.0116227 4.631576e+27 22
-9.2589149 0.35947689 3.0108964 4.631576e+27 22
-9.2500134 0.33250695 3.0076785 4.631576e+27 22
-9.2590494 0.30618694 3.010318 4.631576e+27 22
-9.2518559 0.27933002 3.0077059 4.631576e+27 22
-9.2470264 0.25258365 3.0058875 4.631576e+27 22
-9.2472906 0.22599372 3.0057497 4.631576e+27 22
-9.2516918 0.19949523 3.0069816 4.631576e+27 22
-9.2422705 0.17271641 3.0037458 4.631576e+27 22
-9.2483177 0.14623922 3.0055621 4.631576e+27 22
-9.2495394 0.11966725 3.0058348 4.631576e+27 22
-9.2341719 0.092923276 3.0007415 4.631576e+27 22
-9.1794291 0.065986164 2.9828784 4.631576e+27 22
-9.0774012 0.039160844 2.9496756 4.631576e+27 22
-8.9653397 0.012908256 2.9132373 4.631576e+27 22
-8.9849138 2.3842276e-05 2.9195948 4.631576e+27 22
-9.2531719 -0.013322675 2.7704053 4.631576e+27 21
-9.2362776 -0.039846256 2.7653701 4.631576e+27 21
-9.2454929 -0.066461064 2.7681751 4.631576e+27 21
-9.24963 -0.093078837 2.7694824 4.631576e+27 21
-9.1644669 -0.11856661 2.7440741 4.631576e+27 21
-9.0628376 -0.14330631 2.7137556 4.631576e+27 21
-8.975523 -0.16773152 2.6877437 4.631576e+27 21
-8.9769688 -0.19357136 2.6883321 4.631576e+27 21
-8.9808121 -0.21948127 2.6896608 4.631576e+27 21
-8.9887609 -0.2455291 2.6922417 4.631576e+27 21
-8.9802208 -0.27112886 2.6899061 4.631576e+27 21
-8.9920874 -0.29735878 2.6937053 4.631576e+27 21
-10.567739 -0.3798748 3.166028 4.631576e+27 21
-10.574641 -0.41055989 3.1684363 4.631576e+27 21
-10.576354 -0.44107515 3.1693163 4.631576e+27 21
-10.576987 -0.47155938 3.169899 4.631576e+27 21
-10.576518 -0.50200278 3.1701777 4.631576e+27 21
-10.575227 -0.53241038 3.1702361 4.631576e+27 21
-10.562122 -0.56219059 3.166779 4.631576e+27 21
-10.572885 -0.59324372 3.1705039 4.631576e+27 21
-10.568373 -0.62346762 3.1696754 4.631576e+27 21
-10.562655 -0.65360135 3.1685112 4.631576e+27 21
-10.574881 -0.68487489 3.1727555 4.631576e+27 21
-10.57722 -0.71556163 3.1740615 4.631576e+27 21
-10.567627 -0.74543202 3.1718128 4.631576e+27 21
-10.572701 -0.77633637 3.1739924 4.631576e+27 21
-10.591605 -0.8083384 3.1803517 4.631576e+27 21
-10.587869 -0.83866978 3.1799405 4.631576e+27 21
-10.581923 -0.86881214 3.1788917 4.631576e+27 21
-10.582904 -0.89952332 3.17995 4.631576e+27 21
-10.586206 -0.9304592 3.1817327 4.631576e+27 21
-10.60281 -0.96263725 3.1875412 4.631576e+27 21
-10.587615 -0.99194837 3.1838171 4.631576e+27 21
-10.575738 -1.0215085 3.1811154 4.631576e+27 21
-10.595104 -1.0541252 3.187839 4.631576e+27 21
-10.590266 -1.0843934 3.1873078 4.631576e+27 21
-10.591434 -1.1152841 3.188611 4.631576e+27 21
-10.582297 -1.1450851 3.1868379 4.631576e+27 21
-10.60743 -1.1786602 3.1954141 4.631576e+27 21
-10.588134 -1.2073349 3.1906331 4.631576e+27 21
-10.614398 -1.2412454 3.1996095 4.631576e+27 21
-10.60309 -1.2708266 3.1972888 4.631576e+27 21
-10.5972 -1.3010283 3.1966271 4.631576e+27 21
-10.621078 -1.3349588 3.2049737 4.631576e+27 21
-10.630417 -1.3671815 3.2089646 4.631576e+27 21
-10.614614 -1.3961747 3.2053924 4.631576e+27 21
-10.608403 -1.4263886 3.2047417 4.631576e+27 21
-10.612484 -1.4580041 3.2072272 4.631576e+27 21
-10.62367 -1.4906651 3.2118893 4.631576e+27 21
-10.606947 -1.5194188 3.2081406 4.631576e+27 21
-10.604453 -1.5501802 3.2087207 4.631576e+27 21
-10.617632 -1.5832901 3.214072 4.631576e+27 21
-10.613138 -1.6138169 3.2141025 4.631576e+27 21
-10.614483 -1.6452495 3.2159286 4.631576e+27 21
-10.626911 -1.6784686 3.2211425 4.631576e+27 21
-10.614936 -1.7078627 3.2189872 4.631576e+27 21
-10.647973 -1.7445904 3.2305131 4.631576e+27 21
-10.638764 -1.7744962 3.2292533 4.631576e+27 21
-10.65343 -1.8084303 3.2352691 4.631576e+27 21
-10.64594 -1.8386555 3.234586 4.631576e+27 21
-10.655316 -1.8718307 3.2390563 4.631576e+27 21
-10.648703 -1.9022367 3.2386944 4.631576e+27 21
-10.657382 -1.9354134 3.2430129 4.631576e+27 21
-10.668541 -1.9691322 3.2481174 4.631576e+27 21
-10.654825 -1.9982858 3.245677 4.631576e+27 21
-10.661333 -2.031245 3.2494245 4.631576e+27 21
-10.669984 -2.0646925 3.2538562 4.631576e+27 21
-10.679836 -2.0984631 3.2586865 4.631576e+27 21
-10.662708 -2.1269464 3.2553124 4.631576e+27 21
-10.673057 -2.1609273 3.2603545 4.631576e+27 21
-10.673595 -2.1929915 3.2624311 4.631576e+27 21
-10.692228 -2.2288687 3.270071 4.631576e+27 21
-10.68567 -2.2595692 3.2700381 4.631576e+27 21
-10.681416 -2.2907631 3.2707374 4.631576e+27 21
-10.700987 -2.3271527 3.2787652 4.631576e+27 21
-10.692421 -2.3574967 3.278203 4.631576e+27 21
-10.703977 -2.3923268 3.2838407 4.631576e+27 21
-10.717771 -2.4277754 3.2901998 4.631576e+27 21
-10.69985 -2.4560697 3.2868519 4.631576e+27 21
-10.70854 -2.4904871 3.2917068 4.631576e+27 21
-10.709744 -2.5232368 3.2942927 4.631576e+27 21
-10.712 -2.5562885 3.2972329 4.631576e+27 21
-10.71312 -2.5891242 3.2998545 4.631576e+27 21
-10.728246 -2.6254399 3.3068244 4.631576e+27 21
-10.731744 -2.6590123 3.3102448 4.631576e+27 21
-10.726076 -2.6903539 3.310868 4.631576e+27 21
-10.741358 -2.7270267 3.317991 4.631576e+27 21
-10.746129 -2.7611406 3.3219028 4.631576e+27 21
-10.753993 -2.7961361 3.3268042 4.631576e+27 21
-10.740416 -2.8255887 3.3251026 4.631576e+27 21
-10.736618 -2.8576105 3.3264561 4.631576e+27 21
-10.756803 -2.8961165 3.3352752 4.631576e+27 21
-10.771681 -2.9333534 3.3424888 4.631576e+27 21
-10.771157 -2.9664922 3.3449583 4.631576e+27 21
-10.766693 -2.9985828 3.3462346 4.631576e+27 21
-10.773039 -3.0337436 3.3509033 4.631576e+27 21
-10.76719 -3.0655258 3.3518107 4.631576e+27 21
-10.783386 -3.1036716 3.3596158 4.631576e+27 21
-10.784606 -3.1376164 3.3627915 4.631576e+27 21
-10.790568 -3.1730194 3.3674805 4.631576e+27 21
-10.799478 -3.2093928 3.3731258 4.631576e+27 21
-10.798655 -3.2429566 3.3757663 4.631576e+27 21
-10.824762 -3.2847459 3.3868651 4.631576e+27 21
-10.818486 -3.3168297 3.3878703 4.631576e+27 21
-10.819004 -3.3510387 3.3910348 4.631576e+27 21
-10.823008 -3.3864021 3.3953266 4.631576e+27 21
-10.813356 -3.4175365 3.3953664 4.631576e+27 21
-10.829206 -3.4568121 3.4034488 4.631576e+27 21
-10.832524 -3.4922113 3.4076324 4.631576e+27 21
-10.845345 -3.5307887 3.4148436 4.631576e+27 21
-10.855243 -3.5685513 3.4211755 4.631576e+27 21
-10.845474 -3.5999148 3.421344 4.631576e+27 21
-10.867035 -3.6417811 3.4314337 4.631576e+27 21
-10.863006 -3.675194 3.4334826 4.631576e+27 21
-10.873706 -3.7136796 3.4402242 4.631576e+27 21
-10.872447 -3.7481797 3.4432201 4.631576e+27 21
-10.876469 -3.7845783 3.4479246 4.631576e+27 21
-10.882722 -3.8218567 3.4533751 4.631576e+27 21
-10.900429 -3.8633056 3.4625032 4.631576e+27 21
-10.888022 -3.894171 3.4621036 4.631576e+27 21
-10.907983 -3.9367096 3.4720337 4.631576e+27 21
-10.91361 -3.974232 3.4774466 3.4736819e+27 21
-9.3755426 -4.1990662 3.0757165 6.8663625e-44 21
-9.2999973 -4.1973658 3.0548787 6.8663625e-44 21
-9.2367535 -4.2008204 3.0380578 6.8663625e-44 21
-9.1710281 -4.2027831 3.0204008 6.8663625e-44 21
-9.0957623 -4.1999674 2.9995761 6.8663625e-44 21
-9.0365725 -4.2041898 2.9840293 6.8663625e-44 21
-8.8443575 -4.1457286 2.9244792 6.8663625e-44 21
-8.8034019 -4.1574354 2.9148762 6.8663625e-44 21
-8.7374573 -4.1570497 2.8969858 6.8663625e-44 21
-8.6723423 -4.1566811 2.8793457 6.8663625e-44 21
-8.6722994 -4.187356 2.8833158 6.8663625e-44 21
-8.6369858 -4.2009606 2.8755774 6.8663625e-44 21
-8.5621367 -4.1950293 2.85466 6.8663625e-44 21
-8.5051022 -4.1974421 2.8396549 6.8663625e-44 21
-8.388093 -4.1697206 2.8045785 6.8663625e-44 21
-8.3741598 -4.1928549 2.8039377 6.8663625e-44 21
-8.3192215 -4.1952972 2.7895687 6.8663625e-44 21
-8.2620974 -4.1963201 2.7744467 6.8663625e-44 21
-8.1416502 -4.1646266 2.7380085 6.8663625e-44 21
-8.0714426 -4.1580267 2.718406 6.8663625e-44 21
-8.0226955 -4.1621375 2.7060065 6.8663625e-44 21
-7.9671717 -4.1624384 2.6913028 6.8663625e-44 21
-7.920351 -4.1669998 2.6795216 6.8663625e-44 21
-7.8697691 -4.169313 2.6664524 6.8663625e-44 21
-7.8766155 -4.2019782 2.6728532 6.8663625e-44 21
-7.8389812 -4.2108893 2.6641786 6.8663625e-44 21
-7.7740302 -4.2048368 2.6462009 6.8663625e-44 21
-7.7230735 -4.2060122 2.6329598 6.8663625e-44 21
-7.6863236 -4.2146888 2.6245503 6.8663625e-44 21
-7.6301589 -4.2124619 2.6094959 6.8663625e-44 21
-7.5777721 -4.2120047 2.5957093 6.8663625e-44 21
-7.517911 -4.2070618 2.5793359 6.8663625e-44 21
-7.4802127 -4.2142444 2.5705471 6.8663625e-44 21
-7.4259324 -4.2118282 2.5560436 6.8663625e-44 21
-7.3738275 -4.2103338 2.5422637 6.8663625e-44 21
-7.3246865 -4.210238 2.5294833 6.8663625e-44 21
-7.2825937 -4.2139373 2.5191195 6.8663625e-44 21
-7.2239218 -4.2077494 2.5029974 6.8663625e-44 21
-7.1125078 -4.1702795 2.4685369 6.8663625e-44 21
-7.0759306 -4.176209 2.4599979 6.8663625e-44 21
-7.0126047 -4.1660581 2.4421351 6.8663625e-44 21
-6.9754333 -4.1711469 2.4333553 6.8663625e-44 21
-6.9215612 -4.1659875 2.4187295 6.8663625e-44 21
-6.8869123 -4.1721458 2.4108021 6.8663625e-44 21
-6.8353028 -4.1677842 2.3969195 6.8663625e-44 21
-6.7945113 -4.1697493 2.3868082 6.8663625e-44 21
-6.7557726 -4.1727538 2.3774033 6.8663625e-44 21
-6.7212949 -4.178195 2.3694868 6.8663625e-44 21
-6.7273278 -4.2088017 2.3758683 6.8663625e-44 21
-6.6972713 -4.2168303 2.3695242 6.8663625e-44 21
-6.6311927 -4.2018895 2.3504086 6.8663625e-44 21
-6.5969195 -4.2067952 2.3425367 6.8663625e-44 21
-6.5573835 -4.2081442 2.332783 6.8663625e-44 21
-6.5203447 -4.2108836 2.3239026 6.8663625e-44 21
-6.4868245 -4.2157063 2.3162649 6.8663625e-44 21
-6.4608073 -4.2252612 2.3113019 6.8663625e-44 21
-6.3999109 -4.2117476 2.2938378 6.8663625e-44 21
-6.3082948 -4.1774898 2.2652955 6.8663625e-44 21
-6.2559237 -4.1687245 2.2507825 6.8663625e-44 21
-6.219481 -4.1703043 2.2419744 6.8663625e-44 21
-6.1856017 -4.1734104 2.2340765 6.8663625e-44 21
-6.1464696 -4.1727667 2.2242656 6.8663625e-44 21
-6.1217327 -4.1817284 2.2196543 6.8663625e-44 21
-6.0750108 -4.1754727 2.207056 6.8663625e-44 21
-6.0346956 -4.1733532 2.1967583 6.8663625e-44 21
-6.0083265 -4.1806974 2.1915247 6.8663625e-44 21
-5.9659009 -4.1766782 2.1804199 6.8663625e-44 21
-5.9343257 -4.1800408 2.1732619 6.8663625e-44 21
-5.8849649 -4.1706309 2.1595664 6.8663625e-44 21
-5.8742633 -4.1884627 2.160048 6.8663625e-44 21
-5.8538527 -4.1993413 2.1569722 6.8663625e-44 21
-5.8434167 -4.2173467 2.1575847 6.8663625e-44 21
-5.8163939 -4.2233229 2.1520801 6.8663625e-44 21
-5.7805934 -4.2227559 2.1433158 6.8663625e-44 21
-5.7529531 -4.2279778 2.1375644 6.8663625e-44 21
-5.7090611 -4.2210464 2.1257551 6.8663625e-44 21
-5.6804657 -4.2252107 2.1196208 6.8663625e-44 21
-5.6476159 -4.2260442 2.111887 6.8663625e-44 21
-5.6147776 -4.2267008 2.1041415 6.8663625e-44 21
-5.5651197 -4.2144341 2.0900631 6.8663625e-44 21
-5.5361266 -4.2175703 2.0837185 6.8663625e-44 21
-5.5185161 -4.2292771 2.0816569 6.8663625e-44 21
-5.4864044 -4.229754 2.0741215 6.8663625e-44 21
-5.459662 -4.2342124 2.068604 6.8663625e-44 21
-5.4200954 -4.2285314 2.0582092 6.8663625e-44 21
-5.3840294 -4.2253447 2.0491171 6.8663625e-44 21
-5.3435731 -4.2184696 2.038326 6.8663625e-44 21
-5.324841 -4.2285814 2.0358083 6.8663625e-44 21
-5.2806797 -4.2183189 2.0235517 6.8663625e-44 21
-5.2598891 -4.2265334 2.0202315 6.8663625e-44 21
-5.2280455 -4.2257323 2.0126576 6.8663625e-44 21
-5.1904345 -4.2200551 2.0028398 6.8663625e-44 21
-5.1966681 -4.2499924 2.0099506 6.8663625e-44 21
-5.1947732 -4.2734194 2.0139604 6.8663625e-44 21
-5.184618 -4.2901115 2.0147955 6.8663625e-44 21
-5.1877928 -4.3179193 2.020844 6.8663625e-44 21
-5.1898894 -4.3449759 2.0265172 6.8663625e-44 21
-5.173346 -4.3564792 2.0249383 6.8663625e-44 21
-5.1356287 -4.3500071 2.0150607 6.8663625e-44 21
-5.0935235 -4.3395481 2.0034258 6.8663625e-44 21
-5.0694776 -4.3442712 1.9988708 6.8663625e-44 21
-5.0240579 -4.3304563 1.9858619 6.8663625e-44 21
-4.9885798 -4.3249297 1.9767438 6.8663625e-44 21
-4.95118 -4.3174949 1.9668332 6.8663625e-44 21
-4.9207335 -4.3159065 1.9596583 6.8663625e-44 21
-4.8854795 -4.3098931 1.9505439 6.8663625e-44 21
-4.8410153 -4.2954741 1.9377128 6.8663625e-44 21
-4.8058181 -4.2889948 1.9285508 6.8663625e-44 21
-4.7719665 -4.2834878 1.9198993 6.8663625e-44 21
-4.7382236 -4.2778554 1.9112626 6.8663625e-44 21
-4.7127562 -4.2795134 1.9059436 6.8663625e-44 21
-4.6738276 -4.2687392 1.8951542 6.8663625e-44 21
-4.6532063 -4.2745013 1.8917668 6.8663625e-44 21
-4.6110725 -4.2602987 1.8796078 6.8663625e-44 21
-4.5825648 -4.25844 1.8729688 6.8663625e-44 21
-4.5431299 -4.2461944 1.8618318 6.8663625e-44 21
-4.5137973 -4.2431517 1.8548012 6.8663625e-44 21
-4.4766183 -4.2325048 1.8445152 6.8663625e-44 21
-4.4514656 -4.2330222 1.8391569 6.8663625e-44 21
-4.419703 -4.2270756 1.8310463 6.8663625e-44 21
-4.3869834 -4.2199922 1.8225083 6.8663625e-44 21
-4.3637428 -4.2218518 1.8178873 6.8663625e-44 21
-4.3279524 -4.2113762 1.8080125 6.8663625e-44 21
-4.2932463 -4.2016964 1.7985517 6.8663625e-44 21
-4.2746596 -4.2076287 1.7958244 6.8663625e-44 21
-4.241221 -4.1987844 1.7868391 6.8663625e-44 21
-4.2032585 -4.1851921 1.7759062 6.8663625e-44 21
-4.176918 -4.1829414 1.7698495 6.8663625e-44 21
-4.1489244 -4.1788616 1.7630703 6.8663625e-44 21
-4.1244092 -4.1781201 1.7577486 6.8663625e-44 21
-4.0955782 -4.1728354 1.7505656 6.8663625e-44 21
-4.0729413 -4.1737008 1.7460103 6.8663625e-44 21
-4.0399542 -4.163774 1.7369926 6.8663625e-44 21
-4.0039024 -4.1504207 1.726614 6.8663625e-44 21
-3.9856057 -4.1552906 1.7238672 6.8663625e-44 21
-3.9480584 -4.1398988 1.7127668 6.8663625e-44 21
-3.9301238 -4.1448817 1.7101476 6.8663625e-44 21
-3.8984685 -4.1352372 1.7015382 6.8663625e-44 21
-3.883954 -4.1436381 1.7003944 6.8663625e-44 21
-3.8498716 -4.1310101 1.6906644 6.8663625e-44 21
-3.8231099 -4.126008 1.6841131 6.8663625e-44 21
-3.7972515 -4.1218014 1.6779342 6.8663625e-44 21
-3.7667422 -4.1123414 1.6696689 6.8663625e-44 21
-3.7514536 -4.1193595 1.6681334 6.8663625e-44 21
-3.7142892 -4.1021733 1.6568439 6.8663625e-44 21
-3.7024555 -4.112802 1.6568315 6.8663625e-44 21
-3.6770582 -4.1082759 1.6507437 6.8663625e-44 21
-3.6466405 -4.0979323 1.6423694 6.8663625e-44 21
-3.625623 -4.0979714 1.6382016 6.8663625e-44 21
-3.6116993 -4.1059542 1.6372361 6.8663625e-44 21
-3.5281301 -4.0342717 1.6046028 6.8663625e-44 21
-3.5147605 -4.0423727 1.6037999 6.8663625e-44 21
-3.5020714 -4.0512371 1.6033167 6.8663625e-44 21
-3.463201 -4.029624 1.5908171 6.8663625e-44 21
-3.4537656 -4.0420909 1.5918131 6.8663625e-44 21
-3.4415617 -4.0513282 1.5915488 6.8663625e-44 21
-3.4155395 -4.0441966 1.5848839 6.8663625e-44 21
-3.3980498 -4.0470281 1.5821594 6.8663625e-44 21
-3.3812664 -4.0506244 1.5797592 6.8663625e-44 21
-3.3446481 -4.0302482 1.5680567 6.8663625e-44 21
-3.3364115 -4.0439191 1.569638 6.8663625e-44 21
-3.3254609 -4.0543289 1.5699621 6.8663625e-44 21
-3.304244 -4.0521588 1.5654377 6.8663625e-44 21
-3.2870042 -4.0547571 1.5627851 6.8663625e-44 21
-3.2740719 -4.0626197 1.5621819 6.8663625e-44 21
-3.2520924 -4.0591712 1.5572551 6.8663625e-44 21
-3.2634883 -4.0974755 1.5683451 6.8663625e-44 21
-3.2460117 -4.0996575 1.5656028 6.8663625e-44 21
-3.2313147 -4.1052861 1.5641989 6.8663625e-44 21
-3.2096581 -4.1019769 1.5594164 6.8663625e-44 21
-3.1864328 -4.0965014 1.5538466 6.8663625e-44 21
-3.1680381 -4.0970984 1.5506128 6.8663625e-44 21
-3.1485953 -4.0962305 1.5468527 6.8663625e-44 21
-3.1315041 -4.0983214 1.5442369 6.8663625e-44 21
-3.1185694 -4.1058016 1.5436716 6.8663625e-44 21
-3.0954781 -4.099812 1.5380682 6.8663625e-44 21
-3.0771337 -4.099968 1.5348023 6.8663625e-44 21
-3.0551221 -4.0951047 1.5296881 6.8663625e-44 21
-3.0345852 -4.0920644 1.5252881 6.8663625e-44 21
-3.014487 -4.0894775 1.521088 6.8663625e-44 21
-3.0070114 -4.1039815 1.5232617 6.8663625e-44 21
-2.9795277 -4.0910845 1.5152898 6.8663625e-44 21
-2.9643891 -4.0949802 1.5135704 6.8663625e-44 21
-2.9461229 -4.0944724 1.5102466 6.8663625e-44 21
-2.9266374 -4.0921502 1.5062813 6.8663625e-44 21
-2.907896 -4.0907445 1.5026809 6.8663625e-44 21
-2.8909519 -4.0917616 1.4999961 6.8663625e-44 21
-2.883039 -4.1055508 1.502007 6.8663625e-44 21
-2.8580925 -4.0950027 1.4951364 6.8663625e-44 21
-2.8448079 -4.1010342 1.494347 6.8663625e-44 21
-2.8209648 -4.0917249 1.4879942 6.8663625e-44 21
-2.8112042 -4.1027522 1.4890598 6.8663625e-44 21
-2.7888911 -4.0953836 1.4834697 6.8663625e-44 21
-2.7725627 -4.0966663 1.4810416 6.8663625e-44 21
-2.763077 -4.1080394 1.482276 6.8663625e-44 21
-2.7430952 -4.1037521 1.4778781 6.8663625e-44 21
-2.7292891 -4.1086097 1.4767962 6.8663625e-44 21
-2.7042229 -4.0963731 1.4695979 6.8663625e-44 21
-2.6859663 -4.0942645 1.4660658 6.8663625e-44 21
-2.674886 -4.1030397 1.4664488 6.8663625e-44 21
-2.6576228 -4.1022849 1.4634428 6.8663625e-44 21
-2.642724 -4.1050963 1.4617301 6.8663625e-44 21
-2.6268897 -4.1063848 1.4594942 6.8663625e-44 21
-2.6073682 -4.1017928 1.4551926 6.8663625e-44 21
-2.5938036 -4.1064768 1.4542034 6.8663625e-44 21
-2.5770302 -4.1060133 1.4514101 6.8663625e-44 21
-2.5602169 -4.1053843 1.4485806 6.8663625e-44 21
-2.5392392 -4.0979319 1.4433697 6.8663625e-44 21
-2.520601 -4.0940886 1.4394584 6.8663625e-44 21
-2.5122185 -4.1068673 1.4414066 6.8663625e-44 21
-2.494683 -4.1046586 1.4381088 6.8663625e-44 21
-2.4845905 -4.1146536 1.4391025 6.8663625e-44 21
-2.4706502 -4.1182718 1.4378784 6.8663625e-44 21
-2.4645238 -4.1349545 1.4412239 6.8663625e-44 21
-2.4498255 -4.1372871 1.4395766 6.8663625e-44 21
-2.4334271 -4.1366677 1.4369215 6.8663625e-44 21
-2.4283803 -4.1553721 1.4409882 6.8663625e-44 21
-2.4137676 -4.1577544 1.4394025 6.8663625e-44 21
-2.4023228 -4.1655693 1.4397116 6.8663625e-44 21
-2.3879993 -4.1683717 1.4383018 6.8663625e-44 21
-2.3749666 -4.1733871 1.4376712 6.8663625e-44 21
-2.3689845 -4.1908517 1.4413357 6.8663625e-44 21
-2.3600686 -4.2032347 1.4432557 6.8663625e-44 21
-2.3465047 -4.2073603 1.4423504 6.8663625e-44 21
-2.3330476 -4.2116427 1.4415137 6.8663625e-44 21
-2.319844 -4.2163525 1.4408375 6.8663625e-44 21
-2.3042462 -4.2166543 1.4386715 6.8663625e-44 21
-2.2960994 -4.2305984 1.4411713 6.8663625e-44 21
-2.2823889 -4.2343211 1.4401987 6.8663625e-44 21
-2.2709849 -4.2423139 1.4406911 6.8663625e-44 21
-2.2579885 -4.2473311 1.4401851 6.8663625e-44 21
-2.2434568 -4.2494197 1.4387008 6.8663625e-44 21
-2.2341945 -4.2614985 1.4406101 6.8663625e-44 21
-2.2151511 -4.2548685 1.4362106 6.8663625e-44 21
-2.1986969 -4.2530642 1.4334623 6.8663625e-44 21
-2.1815472 -4.2497897 1.4302394 6.8663625e-44 21
-2.1609633 -4.2396412 1.4247278 6.8663625e-44 21
-2.1497285 -4.2477317 1.4253643 6.8663625e-44 21
-2.133214 -4.2453427 1.4224993 6.8663625e-44 21
-2.1185806 -4.2466011 1.4208746 6.8663625e-44 21
-2.1005199 -4.24087 1.4169313 6.8663625e-44 21
-2.0902114 -4.2507324 1.4182132 6.8663625e-44 21
-2.073698 -4.2479415 1.4152875 6.8663625e-44 21
-2.0632946 -4.2576294 1.4165335 6.8663625e-44 21
-2.0434616 -4.2477713 1.4112937 6.8663625e-44 21
-2.026767 -4.2442517 1.4081831 6.8663625e-44 21
-2.016026 -4.2531538 1.4092083 6.8663625e-44 21
-2.0000505 -4.250977 1.4065764 6.8663625e-44 21
-1.9885058 -4.2581687 1.407059 6.8663625e-44 21
-1.9707154 -4.2519069 1.4031124 6.8663625e-44 21
-1.9581674 -4.2568612 1.4028841 6.8663625e-44 21
-1.9334636 -4.235178 1.393901 6.8663625e-44 21
-1.927529 -4.2545052 1.3984329 6.8663625e-44 21
-1.9082596 -4.2443852 1.3932979 6.8663625e-44 21
-1.8999739 -4.2586427 1.3961798 6.8663625e-44 21
-1.8830135 -4.2534423 1.3926947 6.8663625e-44 21
-1.8697703 -4.2565384 1.391943 6.8663625e-44 21
-1.8451835 -4.2335715 1.3826925 6.8663625e-44 21
-1.834339 -4.2419372 1.3836969 6.8663625e-44 21
-1.820279 -4.242857 1.3822845 6.8663625e-44 21
-1.8101499 -4.252943 1.3838698 6.8663625e-44 21
-1.7929583 -4.2463808 1.380052 6.8663625e-44 21
-1.7768859 -4.2423019 1.3770609 6.8663625e-44 21
-1.7637243 -4.2450795 1.3763112 6.8663625e-44 21
-1.7523543 -4.2521667 1.3769703 6.8663625e-44 21
-1.7329235 -4.2395673 1.3712716 6.8663625e-44 21
-1.7225783 -4.2490883 1.372744 6.8663625e-44 21
-1.7136854 -4.2622976 1.3754145 6.8663625e-44 21
-1.6910377 -4.2411485 1.3670156 6.8663625e-44 21
-1.6802554 -4.2495699 1.3681678 6.8663625e-44 21
-1.6693985 -4.2578621 1.369287 6.8663625e-44 21
-1.6553205 -4.2579284 1.3677726 6.8663625e-44 21
-1.5637754 -4.0569391 1.3017597 6.8663625e-44 21
-1.5514224 -4.0596223 1.3011844 6.8663625e-44 21
-1.5472959 -4.0839887 1.3075634 6.8663625e-44 21
-1.5291094 -4.0712681 1.3020781 6.8663625e-44 21
-1.5147631 -4.0685611 1.2998146 6.8663625e-44 21
-1.5033554 -4.0736914 1.3000677 6.8663625e-44 21
-1.4953624 -4.0881715 1.3033117 6.8663625e-44 21
-1.4726646 -4.0622721 1.2937002 6.8663625e-44 21
-1.4616383 -4.0683141 1.2942811 6.8663625e-44 21
-1.4571712 -4.0928121 1.300737 6.8663625e-44 21
-1.5001489 -4.2521653 1.3500051 6.8663625e-44 21
-1.4851903 -4.2486482 1.3475277 6.8663625e-44 21
-1.4742897 -4.2567034 1.3487328 6.8663625e-44 21
-1.4539554 -4.2373371 1.341267 6.8663625e-44 21
-1.4421374 -4.242579 1.3416086 6.8663625e-44 21
-1.4318942 -4.2525187 1.3434447 6.8663625e-44 21
-1.4223876 -4.2647791 1.3460209 6.8663625e-44 21
-1.4045998 -4.2521276 1.3407482 6.8663625e-44 21
-1.3909916 -4.2519269 1.3394188 6.8663625e-44 21
-1.3810618 -4.2629986 1.3416504 6.8663625e-44 21
-1.363557 -4.250597 1.3365084 6.8663625e-44 21
-1.3461994 -4.2383332 1.3314302 6.8663625e-44 21
-1.3355812 -4.2471762 1.3329966 6.8663625e-44 21
-1.3295604 -4.2708888 1.3392341 6.8663625e-44 21
-1.3330196 -4.3257718 1.3552369 6.8663625e-44 21
-1.3292848 -4.3581223 1.3641694 6.8663625e-44 21
-1.3336459 -4.4178853 1.3816707 6.8663625e-44 21
-1.3322636 -4.4595976 1.3935127 6.8663625e-44 21
-1.3285471 -4.494216 1.4031311 6.8663625e-44 21
-1.3322238 -4.5547695 1.420835 6.8663625e-44 21
-1.3346561 -4.612246 1.4375619 8.5896911e+18 21
-1.3218049 -4.6174994 1.4380091 1.7179382e+19 21
-1.3112731 -4.6309767 1.4410264 1.7179382e+19 21
-1.2966689 -4.6301265 1.4395964 1.7179382e+19 21
-1.2821769 -4.6295795 1.4382745 1.7179382e+19 21
-1.2667133 -4.6253896 1.4358357 1.7179382e+19 21
-1.2537078 -4.6300983 1.436173 1.7179382e+19 21
-1.237206 -4.6217718 1.4324812 1.7179382e+19 21
-1.222353 -4.6194 1.4306512 1.7179382e+19 21
-1.2089602 -4.6224723 1.4305207 1.7179382e+19 21
-1.1944542 -4.6212287 1.4290674 1.7179382e+19 21
-1.1822013 -4.6286941 1.4303192 1.7179382e+19 21
-1.1660422 -4.6207786 1.4268317 1.7179382e+19 21
-1.1534138 -4.6267495 1.4276459 1.7179382e+19 21
-1.136457 -4.6152086 1.423071 1.7179382e+19 21
-1.1244912 -4.6238198 1.4247237 1.7179382e+19 21
-1.1109303 -4.6259246 1.4243824 1.7179382e+19 21
-1.0938672 -4.6132312 1.4195 1.7179382e+19 21
-1.0853589 -4.6366735 1.4257475 1.7179382e+19 21
-1.0674467 -4.6199493 1.4196556 1.7179382e+19 21
-1.0554866 -4.6288013 1.4214376 1.7179382e+19 21
-1.0413501 -4.6281376 1.4203088 1.7179382e+19 21
-1.0245966 -4.6155849 1.4155469 1.7179382e+19 21
-1.0102615 -4.6136508 1.4140573 1.7179382e+19 21
-0.99602818 -4.612052 1.412684 1.7179382e+19 21
-0.98372048 -4.6193695 1.4140534 1.7179382e+19 21
-0.97199309 -4.6295795 1.4163178 1.7179382e+19 21
-0.95637804 -4.6212196 1.4129136 1.7179382e+19 21
-0.94291645 -4.6230917 1.4126514 1.7179382e+19 21
-0.93273568 -4.641264 1.4173791 1.7179382e+19 21
-0.91646415 -4.6291394 1.4128661 1.7179382e+19 21
-0.9011023 -4.6212273 1.409655 1.7179382e+19 21
-0.88849849 -4.6273532 1.4107388 1.7179382e+19 21
-0.87804216 -4.6449523 1.415329 1.7179382e+19 21
-0.86018628 -4.6232634 1.4079611 1.7179382e+19 21
-0.84723288 -4.6275668 1.4085242 1.7179382e+19 21
-0.83497053 -4.6357684 1.4102843 1.7179382e+19 21
-0.82074589 -4.6330872 1.4087452 1.7179382e+19 21
-0.80511582 -4.6221662 1.4047149 1.7179382e+19 21
-0.79120791 -4.6208448 1.4036165 1.7179382e+19 21
-0.7788763 -4.6287646 1.4053365 1.7179382e+19 21
-0.76866943 -4.6497412 1.4110284 1.7179382e+19 21
-0.75075644 -4.6239371 1.4025372 1.7179382e+19 21
-0.73689169 -4.6224928 1.401451 1.7179382e+19 21
-0.72524339 -4.6350803 1.4046293 1.7179382e+19 21
-0.71228874 -4.6395612 1.4053611 1.7179382e+19 21
-0.69779187 -4.6338954 1.4030316 1.7179382e+19 21
-0.68331105 -4.6280332 1.4006561 1.7179382e+19 21
-0.66938555 -4.6256914 1.3993592 1.7179382e+19 21
-0.65470678 -4.6178589 1.3964148 1.7179382e+19 21
-0.64048213 -4.6128869 1.3943489 1.7179382e+19 21
-0.62973064 -4.6331749 1.3999285 1.7179382e+19 21
-0.61514419 -4.6254406 1.3970515 1.7179382e+19 21
-0.60311294 -4.6369238 1.3999904 1.7179382e+19 21
-0.59014326 -4.6414747 1.4008465 1.7179382e+19 21
-0.57535326 -4.631506 1.397333 1.7179382e+19 21
-0.56146526 -4.6284137 1.3959075 1.7179382e+19 21
-0.54959738 -4.6421528 1.3995688 1.7179382e+19 21
-0.53481907 -4.6313024 1.3958282 1.7179382e+19 21
-0.52218157 -4.6388288 1.3976386 1.7179382e+19 21
-0.5088554 -4.6403952 1.3976641 1.7179382e+19 21
-0.49426192 -4.630095 1.3941281 1.7179382e+19 21
-0.48092791 -4.6312675 1.3940592 1.7179382e+19 21
-0.46749213 -4.6314197 1.3936948 1.7179382e+19 21
-0.45553133 -4.6465464 1.3978469 1.7179382e+19 21
