# .PCD v0.7 - Point Cloud Data file format
VERSION 0.7
FIELDS x y z intensity ring
SIZE 4 4 4 4 2
TYPE F F F F U
COUNT 1 1 1 1 1
WIDTH 1065
HEIGHT 1
VIEWPOINT 0 0 0 1 0 0 0
POINTS 1065
DATA ascii
6.871068 3.9494731 -0.83334345 2.8572842e+32 4
6.8517785 3.9646299 -0.83238262 2.8572842e+32 4
6.8497887 3.9898024 -0.83353066 2.8572842e+32 4
6.8392797 4.0100527 -0.83365095 2.8572842e+32 4
6.8221745 4.0264182 -0.83297318 2.8572842e+32 4
6.8100471 4.0456977 -0.83290887 2.8572842e+32 4
6.7956038 4.0635886 -0.83256739 2.8572842e+32 4
6.7886763 4.0859818 -0.83315414 2.8572842e+32 4
6.7787337 4.1065855 -0.83337903 2.8572842e+32 4
6.7583661 4.1208477 -0.83232778 2.8572842e+32 4
6.7448134 4.139225 -0.83212048 2.8572842e+32 4
6.7544723 4.171926 -0.83478808 2.8572842e+32 4
6.7225413 4.1789451 -0.83232278 2.8572842e+32 4
6.727335 4.2087812 -0.83441061 2.8572842e+32 4
6.7050123 4.2216792 -0.83314347 2.8572842e+32 4
6.7055469 4.2489791 -0.83472395 2.8572842e+32 4
6.6779203 4.2584238 -0.83280516 2.8572842e+32 4
6.6597619 4.2738199 -0.8320691 2.8572842e+32 4
6.6636734 4.3034215 -0.83409983 2.8572842e+32 4
6.638217 4.3140693 -0.83246201 2.8572842e+32 4
6.6268744 4.3338413 -0.83259833 2.8572842e+32 4
6.6125693 4.3516722 -0.83236909 2.8572842e+32 4
6.607738 4.375762 -0.8333407 2.8572842e+32 4
6.6034269 4.4002633 -0.83438861 2.8572842e+32 4
6.5756626 4.4091072 -0.83247828 2.8572842e+32 4
6.5587521 4.4251485 -0.83194423 2.8572842e+32 4
6.5497427 4.4465184 -0.83241916 2.8572842e+32 4
6.536406 4.4649649 -0.83235174 2.8572842e+32 4
6.5294623 4.4878006 -0.8331067 2.8572842e+32 4
6.5243483 4.5119519 -0.83410543 2.8572842e+32 4
6.4978342 4.5212798 -0.83237374 2.8572842e+32 4
6.4877982 4.542028 -0.832757 2.8572842e+32 4
6.4791021 4.5637465 -0.83332109 2.8572842e+32 4
6.4560699 4.5753431 -0.83204681 2.8572842e+32 4
6.4458303 4.5959754 -0.83242619 2.8572842e+32 4
6.4366007 4.6173577 -0.83294469 2.8572842e+32 4
6.4236245 4.6360717 -0.83298647 2.8572842e+32 4
6.4085908 4.653295 -0.83276796 2.8572842e+32 4
6.4041524 4.6782432 -0.83393508 2.8572842e+32 4
6.3787174 4.68784 -0.83237416 2.8572842e+32 4
6.378356 4.7158689 -0.83409232 2.8572842e+32 4
6.3586245 4.7296081 -0.83328629 2.8572842e+32 4
6.3367682 4.7417026 -0.8322047 2.8572842e+32 4
6.3226953 4.759582 -0.83214968 2.8572842e+32 4
6.3261485 4.7907305 -0.83441305 2.8572842e+32 4
6.308712 4.8061204 -0.83393186 2.8572842e+32 4
6.2820783 4.8144288 -0.83223701 2.8572842e+32 4
6.2717366 4.8351808 -0.83270466 2.8572842e+32 4
6.2586637 4.853847 -0.83281779 2.8572842e+32 4
6.2520385 4.877552 -0.83379835 2.8572842e+32 4
6.229424 4.8887768 -0.83265293 2.8572842e+32 4
6.2123914 4.9043288 -0.83225703 2.8572842e+32 4
6.2046456 4.9272285 -0.83311319 2.8572842e+32 4
6.1886768 4.9436193 -0.83287352 2.8572842e+32 4
6.1697741 4.9576359 -0.83224386 2.8572842e+32 4
6.1607323 4.9795794 -0.83295143 2.8572842e+32 4
6.1484928 4.9989724 -0.83323586 2.8572842e+32 4
6.1318979 5.0148239 -0.83293682 2.8572842e+32 4
6.1130686 5.0288172 -0.83233911 2.8572842e+32 4
6.1004066 5.0478706 -0.83258718 2.8572842e+32 4
6.0837102 5.0635848 -0.83229136 2.8572842e+32 4
6.0782566 5.0886898 -0.83354282 2.8572842e+32 4
6.0644045 5.1068125 -0.83365268 2.8572842e+32 4
6.0393796 5.1154799 -0.83223039 2.8572842e+32 4
6.0334964 5.1403532 -0.83345222 2.8572842e+32 4
6.0256033 5.1635923 -0.83440864 2.8572842e+32 4
5.9907918 5.1636992 -0.83163989 2.8572842e+32 4
5.9930677 5.1957588 -0.8340255 2.8572842e+32 4
5.968986 5.205008 -0.83275276 2.8572842e+32 4
5.9610133 5.2282934 -0.83373356 2.8572842e+32 4
5.9406948 5.2407598 -0.83299512 2.8572842e+32 4
5.9250507 5.2573195 -0.83291692 2.8572842e+32 4
5.9054179 5.2703147 -0.83228314 2.8572842e+32 4
5.8952026 5.2917166 -0.83298361 2.8572842e+32 4
5.8890772 5.3168631 -0.83427399 2.8572842e+32 4
5.8643365 5.325201 -0.83293402 2.8572842e+32 4
5.8424525 5.3360491 -0.83200073 2.8572842e+32 4
5.8458018 5.370008 -0.83467233 2.8572842e+32 4
5.8141465 5.3718238 -0.83235359 2.8572842e+32 4
5.8118072 5.4007096 -0.83423758 2.8572842e+32 4
5.7837324 5.405683 -0.83243454 2.8572842e+32 4
5.7610345 5.415576 -0.83140457 2.8572842e+32 4
5.7484646 5.434968 -0.83184159 2.8572842e+32 4
5.7458754 5.4638834 -0.833736 2.8572842e+32 4
5.7266607 5.4770417 -0.83322883 2.8572842e+32 4
5.7095685 5.4922037 -0.83303535 2.8572842e+32 4
5.7002664 5.5148878 -0.83398741 2.8572842e+32 4
5.6747303 5.5218487 -0.83257002 2.8572842e+32 4
5.6576977 5.5370226 -0.83240259 2.8572842e+32 4
5.6423087 5.553802 -0.83248359 2.8572842e+32 4
5.6394415 5.5829849 -0.83442479 2.8572842e+32 4
5.5989461 5.5748515 -0.83080047 2.8572842e+32 4
5.6024957 5.6105456 -0.83371669 2.8572842e+32 4
5.5794716 5.6197014 -0.83269066 2.8572842e+32 4
5.5666933 5.6391563 -0.83319914 2.8572842e+32 4
5.5482378 5.6528678 -0.8328653 2.8572842e+32 4
5.5311203 5.6679239 -0.83273786 2.8572842e+32 4
5.515728 5.6847482 -0.83287698 2.8572842e+32 4
5.4931912 5.6941781 -0.8319419 2.8572842e+32 4
5.4875751 5.7211757 -0.83357835 2.8572842e+32 4
5.4697456 5.7354956 -0.83337075 2.8572842e+32 4
5.4470711 5.7446904 -0.8324284 2.8572842e+32 4
5.4373541 5.7675543 -0.83347338 2.8572842e+32 4
5.4062371 5.7676716 -0.83124137 2.1429632e+32 4
5.404933 5.7995996 -0.83360046 1.4286421e+32 4
5.3709426 5.796442 -0.83092421 1.4286421e+32 4
5.3373075 5.7934546 -0.82829344 1.4286421e+32 4
5.299314 5.7854962 -0.82497448 1.4286421e+32 4
5.2736697 5.7908292 -0.82357007 1.4286421e+32 4
5.24824 5.7962847 -0.8221972 1.4286421e+32 4
5.2224731 5.8012538 -0.82076937 1.4286421e+32 4
5.1915631 5.8003597 -0.81852829 1.4286421e+32 4
5.1527376 5.7903862 -0.81502753 1.4286421e+32 4
5.1258936 5.7936668 -0.81341219 1.4286421e+32 4
5.1028585 5.8011446 -0.81239945 1.4286421e+32 4
5.0752263 5.8032818 -0.81065255 1.4286421e+32 4
5.0466032 5.8041339 -0.80874199 1.4286421e+32 4
5.0184202 5.805336 -0.80689621 1.4286421e+32 4
4.9754267 5.7891502 -0.80265552 1.4286421e+32 4
4.9535575 5.7973309 -0.80181235 1.4286421e+32 4
4.9250102 5.7975793 -0.79988557 1.4286421e+32 4
4.8938313 5.794549 -0.79752344 1.4286421e+32 4
4.8670321 5.7965341 -0.79586798 1.4286421e+32 4
4.8309264 5.7872295 -0.79268068 1.4286421e+32 4
4.8087335 5.7944164 -0.79176867 1.4286421e+32 4
4.7855501 5.8003254 -0.79069328 1.4286421e+32 4
4.7572799 5.7999396 -0.78877348 1.4286421e+32 4
4.3575959 5.3439078 -0.72504824 1.4286421e+32 4
4.3598218 5.3781261 -0.72798765 1.4286421e+32 4
4.3595719 5.4095287 -0.73053914 1.4286421e+32 4
4.2717133 5.3318043 -0.71838164 1.4286421e+32 4
4.2474341 5.3328409 -0.71687341 1.4286421e+32 4
4.2589245 5.3789201 -0.72141916 1.4286421e+32 4
4.2451334 5.3932824 -0.72170597 1.4286421e+32 4
4.2534709 5.4359508 -0.72577661 1.4286421e+32 4
4.260962 5.4778938 -0.72973841 1.4286421e+32 4
4.2484198 5.4942832 -0.73029208 1.4286421e+32 4
4.2480712 5.5265856 -0.73295963 1.4286421e+32 4
4.2945795 5.6204524 -0.74376845 1.4286421e+32 4
4.2653637 5.6156006 -0.74150097 1.4286421e+32 4
4.2382617 5.6133432 -0.7395913 1.4286421e+32 4
4.2112026 5.6109691 -0.73768067 1.4286421e+32 4
4.1904006 5.6168079 -0.73686171 1.4286421e+32 4
4.1594996 5.608953 -0.73425978 1.4286421e+32 4
4.1339602 5.6081328 -0.73259395 1.4286421e+32 4
4.1182628 5.6205907 -0.73267204 1.4286421e+32 4
4.0970674 5.6255074 -0.73177481 1.4286421e+32 4
4.0693078 5.6212735 -0.72969955 1.4286421e+32 4
4.0394683 5.6139545 -0.72723931 1.4286421e+32 4
4.0232763 5.6254869 -0.72723216 1.4286421e+32 4
3.9971454 5.6230369 -0.72542727 1.4286421e+32 4
3.9745624 5.6254382 -0.72426027 1.4286421e+32 4
3.9276006 5.5930128 -0.71862912 1.4286421e+32 4
3.9042199 5.5938358 -0.71729004 1.4286421e+32 4
3.882071 5.5963063 -0.71617311 1.4286421e+32 4
3.8663383 5.607976 -0.71624142 1.4286421e+32 4
3.8458657 5.6127353 -0.71543443 1.4286421e+32 4
3.8323748 5.6276689 -0.71593094 1.4286421e+32 4
3.8100662 5.6296225 -0.71478331 1.4286421e+32 4
3.7861242 5.629035 -0.71332407 1.4286421e+32 4
3.762327 5.628521 -0.71188563 1.4286421e+32 4
3.7381933 5.6273584 -0.71037674 1.4286421e+32 4
3.7194064 5.6341462 -0.70988107 1.4286421e+32 4
3.6894524 5.6238627 -0.70724636 1.4286421e+32 4
3.6737533 5.6351814 -0.70733893 1.4286421e+32 4
3.6406801 5.6196914 -0.70407814 1.4286421e+32 4
3.6232367 5.6281505 -0.7038303 1.4286421e+32 4
3.6011779 5.6293702 -0.70268548 1.4286421e+32 4
3.577692 5.6282287 -0.70125645 1.4286421e+32 4
3.5587549 5.6341424 -0.70071596 1.4286421e+32 4
3.5239255 5.6146798 -0.69703275 1.4286421e+32 4
3.5075188 5.6243782 -0.69698232 1.4286421e+32 4
3.4778419 5.6126556 -0.69428802 1.4286421e+32 4
3.4686241 5.633883 -0.6956777 1.4286421e+32 4
3.4463255 5.633872 -0.69445032 1.4286421e+32 4
3.4204364 5.6278253 -0.69249022 1.4286421e+32 4
3.4010248 5.632298 -0.69183493 1.4286421e+32 4
3.3716922 5.6201649 -0.68915129 1.4286421e+32 4
3.3553531 5.6295452 -0.68911612 1.4286421e+32 4
3.337322 5.636065 -0.68873715 1.4286421e+32 4
3.3080878 5.6234999 -0.68603683 1.4286421e+32 4
3.2860515 5.6229591 -0.68481582 1.4286421e+32 4
3.2684038 5.6298447 -0.68450749 1.4286421e+32 4
3.2436514 5.6243782 -0.68270642 1.4286421e+32 4
3.2249928 5.6293502 -0.68218195 1.4286421e+32 4
3.2048645 5.6316829 -0.68134552 1.4286421e+32 4
3.1815393 5.6282668 -0.6798231 1.4286421e+32 4
3.162138 5.6316695 -0.67913342 1.4286421e+32 4
3.141257 5.6323419 -0.67812294 1.4286421e+32 4
3.1181207 5.6288295 -0.67661822 1.4286421e+32 4
3.0967336 5.6283259 -0.6754849 1.4286421e+32 4
3.0779314 5.6324239 -0.67491221 1.4286421e+32 4
3.0536578 5.6263752 -0.6731329 1.4286421e+32 4
3.0347559 5.6300879 -0.67253065 1.4286421e+32 4
3.0154011 5.6328845 -0.67182666 1.4286421e+32 4
2.9974139 5.6381717 -0.67142695 1.4286421e+32 4
2.9745367 5.6341505 -0.66992718 1.4286421e+32 4
2.9505095 5.6277599 -0.66815615 1.4286421e+32 4
2.9293723 5.6267109 -0.6670292 1.4286421e+32 4
2.9109459 5.6307712 -0.66651595 1.4286421e+32 4
2.8948371 5.639286 -0.66653615 7.1432105e+31 4
2.8720717 5.6347427 -0.6650207 0 4
2.8544478 5.6401768 -0.66469097 0 4
2.8302402 5.6324682 -0.66282111 0 4
2.8079033 5.6282806 -0.66137582 0 4
2.7871962 5.6272058 -0.66030538 0 4
2.7665381 5.6260986 -0.65923971 0 4
2.7499034 5.633101 -0.65913129 0 4
2.7282686 5.6297717 -0.65782148 0 4
2.7103245 5.6339498 -0.65739661 0 4
2.6875467 5.6279521 -0.65579277 0 4
2.6655657 5.6234312 -0.65437049 0 4
2.6534989 5.6397996 -0.65538496 0 4
2.6319528 5.6360011 -0.65406173 0 4
2.6061134 5.6227674 -0.65165401 0 4
2.5898044 5.6299376 -0.65161955 0 4
2.5682466 5.6256061 -0.65026116 0 4
2.5530045 5.635035 -0.65050018 0 4
2.536176 5.6409678 -0.65034086 0 4
2.5144365 5.6358728 -0.6489175 0 4
2.4957147 5.6374016 -0.64826488 0 4
2.4761107 5.6368337 -0.64737856 0 4
2.454675 5.6319423 -0.64600378 0 4
2.4373376 5.6363397 -0.64570194 0 4
2.4172621 5.6343131 -0.64467114 0 4
2.3984582 5.6351309 -0.64397329 0 4
2.3784797 5.6330681 -0.64295363 0 4
2.3593745 5.6329474 -0.64216322 0 4
2.3429029 5.6390529 -0.64208889 0 4
2.3250425 5.6417785 -0.6416356 0 4
2.3008153 5.6288619 -0.63941187 0 4
2.2830911 5.6316633 -0.638982 0 4
2.2579837 5.6160398 -0.63647032 0 4
2.2425382 5.6242766 -0.63667071 0 4
2.23138 5.6433868 -0.63810533 0 4
2.2127643 5.6436925 -0.63741809 0 4
2.1890862 5.6308727 -0.63525689 0 4
2.1735651 5.638886 -0.63545352 0 4
2.1535189 5.6350899 -0.6343255 0 4
2.1310594 5.6247501 -0.63246948 0 4
2.114145 5.6288862 -0.6322487 0 4
2.0956373 5.6287079 -0.63154948 0 4
2.076139 5.6257358 -0.63054383 0 4
2.0659015 5.647922 -0.63236237 0 4
2.0428765 5.6351266 -0.63026971 0 4
2.0247924 5.635746 -0.62968546 0 4
2.0038345 5.6281991 -0.62819606 0 4
1.9874296 5.6333127 -0.62812668 0 4
1.9720865 5.6414528 -0.62839973 0 4
1.950738 5.6322999 -0.62675303 0 4
1.9344424 5.6375957 -0.62672102 0 4
1.917985 5.6424108 -0.62664086 0 4
1.8951795 5.6283598 -0.6244728 0 4
1.8754387 5.6231232 -0.62329113 0 4
1.8569659 5.62152 -0.6225192 0 4
1.8435338 5.6351891 -0.62344354 0 4
1.8211668 5.6214433 -0.62134111 0 4
1.8073914 5.6341043 -0.62216377 0 4
1.7952989 5.6522121 -0.62359101 0 4
1.7709475 5.6315975 -0.62075251 0 4
1.7537454 5.6334267 -0.6203959 0 4
1.7380074 5.6399412 -0.62056059 0 4
1.7152022 5.6233168 -0.61818647 0 4
1.7009875 5.6347008 -0.61889791 0 4
1.6860834 5.6439137 -0.61937499 0 4
1.6668775 5.6386666 -0.61827081 0 4
1.6463059 5.6285367 -0.61663866 0 4
1.634249 5.6475101 -0.61820012 0 4
1.6087749 5.6199236 -0.61467171 0 4
1.5989962 5.6470604 -0.61713451 0 4
1.5787913 5.6374679 -0.61558771 0 4
1.5643377 5.648325 -0.61627978 0 4
1.5437587 5.6369596 -0.61455297 0 4
1.5295198 5.6486468 -0.61534536 0 4
1.5120518 5.6484408 -0.61484694 0 4
1.4912869 5.6356688 -0.61298752 0 4
1.4725249 5.6301537 -0.61192477 0 4
1.4556648 5.6317654 -0.61164266 0 4
1.4445068 5.6556406 -0.61378217 0 4
1.4224722 5.6368937 -0.61130142 0 4
1.4083117 5.6491714 -0.61219144 0 4
1.3871589 5.6332574 -0.61003226 0 4
1.3742666 5.6508112 -0.61150289 0 4
1.3521079 5.6301246 -0.60884118 0 4
1.3377904 5.6418762 -0.60969371 0 4
1.3183817 5.6320839 -0.6082235 0 4
1.306945 5.6564384 -0.61044532 0 4
1.288332 5.6498685 -0.60933417 0 4
1.2714285 5.65062 -0.60901856 0 4
1.2566106 5.660687 -0.60971183 0 4
1.234624 5.638195 -0.60690451 0 4
1.2162827 5.631856 -0.60584331 0 4
1.1998746 5.634316 -0.60573441 0 4
1.1846728 5.6424937 -0.60624504 0 4
1.1686395 5.6467919 -0.60634339 0 4
1.1499885 5.6382837 -0.60507238 0 4
1.1338893 5.6421208 -0.60513192 0 4
1.1194576 5.654398 -0.6061011 0 4
1.0976056 5.6288986 -0.60302716 0 4
1.0836439 5.6436019 -0.60426611 0 4
1.0686653 5.6532903 -0.60497206 0 4
1.0478411 5.631773 -0.60234469 0 4
1.0327259 5.6406407 -0.60297316 0 4
1.014513 5.6325054 -0.6017893 0 4
0.99842376 5.6359863 -0.60185212 0 4
0.98119801 5.6329646 -0.60122579 0 4
0.96335268 5.626122 -0.60019743 0 4
0.94505221 5.6162367 -0.59885061 0 4
0.92995059 5.6252503 -0.5995242 0 4
0.91301697 5.6232119 -0.59902477 0 4
0.89582068 5.6193523 -0.59833694 0 4
0.88169605 5.634882 -0.59971809 0 4
0.86564726 5.6383772 -0.59982282 0 4
0.84891993 5.6374049 -0.59945738 0 4
0.8348487 5.6542873 -0.60099488 0 4
0.81456912 5.6288557 -0.59804046 0 4
0.79843849 5.6315379 -0.59807909 0 4
0.78352553 5.6430058 -0.59905541 0 4
0.76624 5.6374164 -0.59822571 0 4
0.75094098 5.6464195 -0.59894961 0 4
0.73454046 5.6472631 -0.59881264 0 4
0.71812201 5.6479068 -0.59865957 0 4
0.70082885 5.6414433 -0.59775847 0 4
0.68506616 5.6471872 -0.59815598 0 4
0.66826582 5.6443524 -0.59764981 0 4
0.65227115 5.6482553 -0.59786206 0 4
0.63376248 5.6299295 -0.59572703 0 4
0.61879414 5.6428194 -0.59690028 0 4
0.60407799 5.6586766 -0.59839153 0 4
0.58576715 5.6407089 -0.59631097 0 4
0.57056808 5.6524377 -0.59737509 0 4
0.55313784 5.6420059 -0.59610206 0 4
0.53683162 5.6426558 -0.59600526 0 4
0.52022463 5.6399884 -0.59556311 0 4
0.50266296 5.6263647 -0.59396946 0 4
0.4884437 5.6503968 -0.59635592 0 4
0.47118458 5.6396132 -0.59507239 0 4
0.45494545 5.640605 -0.59503657 0 4
0.4388507 5.6434298 -0.59519905 0 4
0.42307198 5.6505966 -0.59582418 0 4
0.40629798 5.6444139 -0.5950467 0 4
0.39107469 5.6600609 -0.5965752 0 4
0.37371328 5.6446795 -0.59483832 0 4
0.35831106 5.6587391 -0.59620893 0 4
0.34155318 5.6516113 -0.59535205 0 4
0.32567254 5.6589127 -0.59602016 0 4
0.30893436 5.6511998 -0.59511185 0 4
0.29303604 5.6587472 -0.59581548 0 4
0.27638981 5.6517916 -0.59499699 0 4
0.26026475 5.655189 -0.59527344 0 4
0.2420581 5.610692 -0.59051394 0 4
0.22649999 5.6255112 -0.59200263 0 4
0.20994215 5.6157703 -0.59091163 0 4
0.19413435 5.62604 -0.5919311 0 4
0.17825019 5.635663 -0.59288716 0 4
0.16175768 5.6259503 -0.59181404 0 4
0.14536791 5.6179452 -0.59092557 0 4
0.12972981 5.6405158 -0.59325796 0 4
0.11352266 5.6411538 -0.5932883 0 4
0.097255513 5.6384168 -0.59296858 0 4
0.081037588 5.6378975 -0.59288704 0 4
0.064755201 5.6313958 -0.59218132 0 4
0.048567005 5.6313581 -0.59216022 0 4
0.032440152 5.6418109 -0.59324712 0 4
0.016227348 5.643085 -0.59337372 0 4
7.4755289e-06 5.6342764 -0.59244508 0 4
-0.016173219 5.6294565 -0.5919407 0 4
-0.032368351 5.6319227 -0.59220731 0 4
-0.048583791 5.6350384 -0.59254718 0 4
-0.06479504 5.6361613 -0.59268242 0 4
-0.08117421 5.6484451 -0.59399629 0 4
-0.097229846 5.6377959 -0.59290332 0 4
-0.11353385 5.6424537 -0.59342498 0 4
-0.12983252 5.6456337 -0.59379625 0 4
-0.14590716 5.6393647 -0.59317851 0 4
-0.1619232 5.6322269 -0.59247428 0 4
-0.17838722 5.6404686 -0.59339273 0 4
-0.19409354 5.6252904 -0.59185219 0 4
-0.2101627 5.6220694 -0.59157437 0 4
-0.22663584 5.6292567 -0.59239674 0 4
-0.24274404 5.6269383 -0.59222376 0 4
-0.2601147 5.652256 -0.59496462 0 4
-0.27627277 5.6497054 -0.59477729 0 4
-0.29223055 5.6434822 -0.59420812 0 4
-0.3073363 5.622241 -0.59206218 0 4
-0.32445601 5.6380348 -0.59382111 0 4
-0.34050938 5.6345873 -0.59355867 0 4
-0.35717431 5.6410236 -0.59434235 0 4
-0.37238443 5.6248345 -0.59274697 0 4
-0.38994586 5.6439414 -0.59487611 0 4
-0.40527919 5.6304693 -0.59357649 0 4
-0.42067471 5.6187787 -0.59246904 0 4
-0.43776187 5.6296215 -0.59374255 0 4
-0.45585346 5.6520505 -0.5962438 0 4
-0.47159153 5.6446648 -0.59560525 0 4
-0.48989567 5.6673689 -0.59814698 0 4
-0.50497311 5.6523919 -0.596717 0 4
-0.52143562 5.6532812 -0.59696668 0 4
-0.53655392 5.639895 -0.59571356 0 4
-0.55390412 5.6499767 -0.59694409 0 4
-0.57200992 5.666872 -0.59890038 0 4
-0.5860517 5.6435952 -0.59661591 0 4
-0.60444665 5.662272 -0.59877157 0 4
-0.61922342 5.646872 -0.59732878 0 4
-0.63667983 5.6559801 -0.59848338 0 4
-0.65333426 5.6575923 -0.59885019 0 4
-0.66847682 5.6462631 -0.59785193 0 4
-0.6849066 5.645997 -0.59802973 0 4
-0.70129794 5.6453414 -0.59817129 0 4
-0.72075117 5.668705 -0.60086387 0 4
-0.73519868 5.652441 -0.59936148 0 4
-0.73934317 5.5593276 -0.58971101 0 4
-0.75561619 5.5593643 -0.58994287 0 4
-0.77004081 5.5459962 -0.58875674 0 4
-0.78613192 5.5448427 -0.58887172 0 4
-0.80293643 5.5485749 -0.58951074 0 4
-0.81852138 5.543807 -0.5892517 0 4
-0.83457381 5.5422373 -0.58933741 0 4
-0.85418063 5.5637879 -0.59188759 0 4
-0.86668938 5.5390711 -0.58952081 0 4
-0.8851282 5.5523748 -0.591205 0 4
-0.89987272 5.5423498 -0.59041053 0 4
-0.91960883 5.5627847 -0.59286654 0 4
-0.93383789 5.5496826 -0.59175372 0 4
-0.95255899 5.5631742 -0.59348184 0 4
-0.96795893 5.5570474 -0.5931226 0 4
-0.98253971 5.5464087 -0.59228605 0 4
-1.0000684 5.5523944 -0.59322977 0 4
-1.0156933 5.5476933 -0.59303701 0 4
-1.0324546 5.5491581 -0.59350836 0 4
-1.0493689 5.5512919 -0.59405673 0 4
-1.0655458 5.5494261 -0.59418231 0 4
-1.0834521 5.5563927 -0.59525925 0 4
-1.1024115 5.5683751 -0.5968799 0 4
-1.1162806 5.5545774 -0.59574234 0 4
-1.1335201 5.5576158 -0.59641516 0 4
-1.1534921 5.5736747 -0.59849191 0 4
-1.1653444 5.5505071 -0.5963614 0 4
-1.1827164 5.5538173 -0.59707981 0 4
-1.1991267 5.5524883 -0.597305 0 4
-1.2136196 5.5423436 -0.59658653 0 4
-1.2316961 5.5485239 -0.59763038 0 4
-1.2507632 5.5588455 -0.59912688 0 4
-1.2702051 5.5704427 -0.60076779 0 4
-1.2811681 5.5449433 -0.59841239 0 4
-1.2972478 5.5418673 -0.59848034 0 4
-1.3169661 5.5541191 -0.60020977 0 4
-1.3334613 5.5525455 -0.60045141 0 4
-1.3529136 5.5630746 -0.6020081 0 4
-1.3655841 5.5457058 -0.60055077 0 4
-1.3866792 5.5624595 -0.60279417 0 4
-1.4001231 5.5483918 -0.60170335 0 4
-1.4161826 5.5448055 -0.60175335 0 4
-1.4365412 5.5578399 -0.6036135 0 4
-1.4514868 5.5497756 -0.60318828 0 4
-1.4710069 5.5590887 -0.60465759 0 4
-1.489869 5.5656333 -0.6058327 0 4
-1.5004241 5.5412526 -0.60364574 0 4
-1.5214591 5.5555911 -0.60568166 0 4
-1.5367868 5.5489049 -0.60543174 0 4
-1.5569422 5.5595074 -0.60707432 0 4
-1.5696155 5.543355 -0.60580069 0 4
-1.5940509 5.5685444 -0.6090517 0 4
-1.6036285 5.541749 -0.60662264 0 4
-1.6245748 5.5542946 -0.60850459 0 4
-1.6419238 5.5543084 -0.60902053 0 4
-1.659332 5.5544209 -0.60955334 0 4
-1.678507 5.5602851 -0.61072379 0 4
-1.6939231 5.553606 -0.61052245 0 4
-1.7106386 5.5511799 -0.61079377 0 4
-1.7284428 5.5522008 -0.6114502 0 4
-1.746546 5.5540524 -0.61220443 0 4
-1.7637408 5.5529075 -0.61263454 0 4
-1.7820767 5.5552425 -0.6134547 0 4
-1.7992833 5.5539451 -0.61387998 0 4
-1.816075 5.5513048 -0.61416256 0 4
-1.832382 5.5471473 -0.61428279 0 4
-1.8498169 5.5463505 -0.61478078 0 4
-1.8683474 5.5487218 -0.61563629 0 4
-1.888773 5.5565219 -0.61710155 0 4
-1.9108142 5.5687838 -0.61907071 0 4
-1.9291168 5.5699215 -0.61981112 0 4
-1.9470932 5.5700035 -0.62044036 0 4
-1.9637845 5.5663381 -0.62065828 0 4
-1.9772496 5.553576 -0.61986643 0 4
-1.9955471 5.5543914 -0.6205951 0 4
-2.0108085 5.5467153 -0.62038058 0 4
-2.0324144 5.5564179 -0.62211663 0 4
-2.0507658 5.5570273 -0.62284225 0 4
-2.0731845 5.5684466 -0.62478745 0 4
-2.0847433 5.5506487 -0.62346023 0 4
-2.1032598 5.5514197 -0.62422329 0 4
-2.1293986 5.5720186 -0.62722516 0 4
-2.1416585 5.5561552 -0.62612981 0 4
-2.1633379 5.5646853 -0.6277892 0 4
-2.1753645 5.5483465 -0.62664872 0 4
-2.1959107 5.5537248 -0.62796646 0 4
-2.2194662 5.5664549 -0.63012457 0 4
-2.2350292 5.55899 -0.63000417 0 4
-2.2594278 5.5733366 -0.63236344 0 4
-2.2793193 5.5763149 -0.6334421 0 4
-2.2932842 5.5647573 -0.63287538 0 4
-2.3056426 5.5494142 -0.63188148 0 4
-2.3276105 5.5571532 -0.6335218 0 4
-2.350811 5.5675807 -0.63547826 0 4
-2.3620262 5.5495749 -0.63419539 0 4
-2.3872669 5.5644388 -0.63667554 0 4
-2.4054327 5.5625997 -0.63725352 0 4
-2.4247296 5.5632772 -0.63812691 0 4
-2.4452991 5.5667319 -0.63932675 0 4
-2.4613683 5.5598588 -0.63934726 0 4
-2.4787581 5.5559425 -0.63971353 0 4
-2.4974253 5.5548182 -0.64040798 0 4
-2.5196896 5.5615416 -0.6420154 0 4
-2.5313807 5.5448923 -0.64093071 0 4
-2.5596232 5.5643659 -0.64402938 0 4
-2.5737712 5.5530272 -0.6435706 0 4
-2.599108 5.5657067 -0.64590323 0 4
-2.6259737 5.5813355 -0.64859021 0 4
-2.6347706 5.5585022 -0.64681423 0 4
-2.6503944 5.5501904 -0.64673078 0 4
-2.6785641 5.5679669 -0.64969665 0 4
-2.6929193 5.5568657 -0.64930177 0 4
-2.7168245 5.5653768 -0.65120602 0 4
-2.7338369 5.5596337 -0.65145081 0 4
-2.7583992 5.5691032 -0.65348667 0 4
-2.7845216 5.5814505 -0.65587193 0 4
-2.7956364 5.5636401 -0.6547206 0 4
-2.8208032 5.5737343 -0.65685987 0 4
-2.8353338 5.5627036 -0.65651762 0 4
-2.8576782 5.5669346 -0.65798366 0 4
-2.8800144 5.5709758 -0.659437 0 4
-2.898119 5.5667157 -0.65991604 0 4
-2.9159832 5.5619407 -0.66034085 0 4
-2.939121 5.5671048 -0.66195416 0 4
-2.961585 5.5708127 -0.66340452 0 4
-2.9757946 5.5589333 -0.66300565 0 4
-2.9953094 5.5569415 -0.66379219 7.1432105e+31 4
-3.0203543 5.5650487 -0.66579485 1.4286421e+32 4
-3.0383322 5.5599947 -0.66623229 1.4286421e+32 4
-3.0678015 5.5757771 -0.66917723 1.4286421e+32 4
-3.0824299 5.5644355 -0.66887671 1.4286421e+32 4
-3.1054814 5.5682306 -0.67040306 1.4286421e+32 4
-3.1223688 5.5608764 -0.67059535 1.4286421e+32 4
-3.1386385 5.5524082 -0.6706593 1.4286421e+32 4
-3.1649945 5.5616565 -0.67287236 1.4286421e+32 4
-3.1889577 5.566484 -0.67456263 1.4286421e+32 4
-3.2063262 5.5596914 -0.6748535 1.4286421e+32 4
-3.2277596 5.5598688 -0.67599839 1.4286421e+32 4
-3.2540634 5.5682559 -0.6781525 1.4286421e+32 4
-3.2670233 5.5537271 -0.67752391 1.4286421e+32 4
-3.2945414 5.5638504 -0.67991132 1.4286421e+32 4
-3.3200967 5.5704265 -0.68187827 1.4286421e+32 4
-3.3432157 5.5727315 -0.68333393 1.4286421e+32 4
-3.3630962 5.5695195 -0.6841225 1.4286421e+32 4
-3.3870854 5.5729842 -0.68574113 1.4286421e+32 4
-3.4147208 5.5822396 -0.68808484 1.4286421e+32 4
-3.5538542 5.7723513 -0.71277475 1.4286421e+32 4
-3.5788486 5.7756972 -0.71445519 1.4286537e+32 4
-3.7527893 6.0177097 -0.74572343 1.4286652e+32 4
-3.7597499 5.9904547 -0.74368203 1.4286652e+32 4
-3.7528601 5.9414806 -0.73893821 1.4286652e+32 4
-3.7518499 5.9022388 -0.73539591 1.4286652e+32 4
-3.7514589 5.8643241 -0.73201233 1.4286652e+32 4
-3.7581806 5.8377995 -0.73004681 1.4286652e+32 4
-3.7638788 5.8098927 -0.72790676 1.4286652e+32 4
-3.7581551 5.7646794 -0.72359246 1.4286652e+32 4
-3.7540772 5.722404 -0.71963745 1.4286652e+32 4
-3.7611818 5.6974607 -0.71785718 1.4286652e+32 4
-3.7621362 5.6634345 -0.71492952 1.4286652e+32 4
-3.7582369 5.6224346 -0.71111459 1.4286652e+32 4
-3.7644498 5.5968423 -0.7092433 1.4286652e+32 4
-3.7583671 5.5532651 -0.70508713 1.4286652e+32 4
-3.7598267 5.5211668 -0.70238084 1.4286652e+32 4
-3.7556627 5.4811225 -0.69865698 1.4286652e+32 4
-3.7675297 5.4646893 -0.69793975 1.4286652e+32 4
-3.7603312 5.4208398 -0.69371694 1.4286652e+32 4
-3.7640512 5.3930373 -0.69154066 1.4286652e+32 4
-3.7634919 5.3593473 -0.68860489 1.4286652e+32 4
-3.7584498 5.319591 -0.68488193 1.4286652e+32 4
-3.7599607 5.2894039 -0.68238401 1.4286652e+32 4
-3.7645082 5.2636976 -0.68046075 1.4286652e+32 4
-3.7607594 5.2266407 -0.67706484 1.4286652e+32 4
-3.7628872 5.1980181 -0.67475533 1.4286652e+32 4
-3.7685106 5.1744089 -0.67309391 1.4286652e+32 4
-3.7685971 5.1433969 -0.67046613 1.4286652e+32 4
-3.7598143 5.1005945 -0.66629261 7.1435577e+31 4
-3.7619443 5.0728908 -0.66408336 4.631576e+27 4
-3.7670138 5.0493283 -0.66241354 4.631576e+27 4
-3.7720132 5.0258245 -0.66074973 4.631576e+27 4
-3.7571149 4.9761181 -0.65563184 4.631576e+27 4
-3.7749476 4.9699664 -0.65624815 4.631576e+27 4
-3.7630012 4.9247861 -0.65170789 4.631576e+27 4
-3.7614133 4.8934889 -0.64899427 4.631576e+27 4
-3.7620206 4.8652725 -0.64668351 4.631576e+27 4
-3.773509 4.8512506 -0.64625877 4.631576e+27 4
-3.7733016 4.822319 -0.64384675 4.631576e+27 4
-3.7657065 4.7842145 -0.64020175 4.631576e+27 4
-3.7565033 4.7444 -0.63631618 4.631576e+27 4
-3.757508 4.7177424 -0.63418674 4.631576e+27 4
-3.7590263 4.6919117 -0.63216424 4.631576e+27 4
-3.7711346 4.6793976 -0.63193601 4.631576e+27 4
-3.7645752 4.6438756 -0.6285975 4.631576e+27 4
-3.7601783 4.6112938 -0.62564766 4.631576e+27 4
-3.7587717 4.582612 -0.62321937 4.631576e+27 4
-3.7612441 4.5588398 -0.62145412 4.631576e+27 4
-3.7637632 4.535275 -0.61971402 4.631576e+27 4
-3.7599301 4.5042486 -0.6169486 4.631576e+27 4
-3.7660551 4.4853172 -0.61583567 4.631576e+27 4
-3.767602 4.4610591 -0.61398935 4.631576e+27 4
-3.7936063 4.4657474 -0.6161328 4.631576e+27 4
-3.8039753 4.4519563 -0.61573607 4.631576e+27 4
-3.8345487 4.4617076 -0.61860651 4.631576e+27 4
-3.8583801 4.463419 -0.62037885 4.631576e+27 4
-3.8823256 4.4651141 -0.62216288 4.631576e+27 4
-3.9055176 4.4657989 -0.62381989 4.631576e+27 4
-3.9289081 4.4665723 -0.62550282 4.631576e+27 4
-3.9469998 4.4612174 -0.62633908 4.631576e+27 4
-3.9782588 4.4705901 -0.6292578 4.631576e+27 4
-3.9895611 4.4574265 -0.6290164 4.631576e+27 4
-4.0216308 4.4673514 -0.63204557 4.631576e+27 4
-4.0409331 4.4629288 -0.63306051 4.631576e+27 4
-4.0659337 4.4646807 -0.63496411 4.631576e+27 4
-4.0894446 4.4646521 -0.63662905 4.631576e+27 4
-4.1031075 4.4537988 -0.63676053 4.631576e+27 4
-4.1412725 4.469378 -0.64068705 4.631576e+27 4
-4.150938 4.454062 -0.64019918 4.631576e+27 4
-4.1800966 4.4595814 -0.64271671 4.631576e+27 4
-4.1957283 4.4505506 -0.64315063 4.631576e+27 4
-4.2067909 4.436667 -0.64288896 4.631576e+27 4
-4.2407269 4.4467883 -0.64611918 4.631576e+27 4
-4.2469096 4.4277196 -0.64511949 4.631576e+27 4
-4.2809839 4.4376416 -0.64835531 4.631576e+27 4
-4.3089638 4.4410281 -0.65065694 4.631576e+27 4
-4.3385291 4.4458594 -0.653189 4.631576e+27 4
-4.3468909 4.4288893 -0.6525287 4.631576e+27 4
-4.3795261 4.4365592 -0.65551072 4.631576e+27 4
-4.4032941 4.4350667 -0.65715748 4.631576e+27 4
-4.4324131 4.4388056 -0.6595965 4.631576e+27 4
-4.453867 4.4347234 -0.66088945 4.631576e+27 4
-4.4830837 4.4382272 -0.66332918 4.631576e+27 4
-4.5131621 4.4423914 -0.66588759 7.1435577e+31 4
-4.5368543 4.4401097 -0.66749752 1.4286652e+32 4
-4.5556479 4.4329381 -0.66838515 1.4286652e+32 4
-4.5894017 4.4401731 -0.67146218 1.4286652e+32 4
-4.6068821 4.4315205 -0.67215335 1.4286652e+32 4
-4.6382351 4.4360828 -0.67486465 1.4286652e+32 4
-4.664793 4.4358811 -0.67687088 1.4286652e+32 4
-4.6888714 4.4331841 -0.67851299 1.4286652e+32 4
-4.7199974 4.4369884 -0.68116885 1.4286652e+32 4
-4.7472658 4.4369879 -0.6832608 1.4286652e+32 4
-4.7680669 4.4308219 -0.68441886 1.4286652e+32 4
-4.8052111 4.4396687 -0.68791604 1.4286652e+32 4
-4.8336968 4.4403019 -0.69016409 1.4286652e+32 4
-4.861485 4.4401321 -0.6923067 1.4286652e+32 4
-4.8826399 4.4337802 -0.69350159 1.4286652e+32 4
-4.9281816 4.449357 -0.69815075 1.4286652e+32 4
-4.949749 4.4430718 -0.69939405 1.4286652e+32 4
-4.9867868 4.4505024 -0.70281702 1.4286652e+32 4
-4.993598 4.4308619 -0.70197916 1.4286652e+32 4
-5.0335741 4.4405398 -0.70580167 1.4286652e+32 4
-5.061357 4.4392452 -0.70790529 1.4286652e+32 4
-5.09901 4.4464049 -0.7113812 1.4286652e+32 4
-5.1288333 4.4465246 -0.71375597 1.4286652e+32 4
-5.1540475 4.4425001 -0.71548498 1.4286652e+32 4
-5.1863904 4.4444594 -0.71819836 1.4286652e+32 4
-5.2197504 4.4470906 -0.72104502 1.4286652e+32 4
-5.251298 4.4479823 -0.72363389 1.4286652e+32 4
-5.2694879 4.4374399 -0.72437984 1.4286652e+32 4
-5.303865 4.4403968 -0.72734815 1.4286652e+32 4
-5.3417325 4.4460468 -0.73078555 1.4286652e+32 4
-5.3629146 4.4376464 -0.73193544 1.4286652e+32 4
-5.4125223 4.452548 -0.73695624 1.4286652e+32 4
-5.4324579 4.4428282 -0.73792881 1.4286652e+32 4
-5.4644265 4.4428229 -0.74053365 1.4286652e+32 4
-5.5331659 4.4723558 -0.74810392 1.4286652e+32 4
-5.5602369 4.4678755 -0.75002474 1.4286652e+32 4
-5.6041951 4.4767499 -0.75421542 1.4286652e+32 4
-5.6321979 4.472661 -0.7562508 1.4286652e+32 4
-5.6543307 4.4637961 -0.75749671 1.4286652e+32 4
-5.7097688 4.4809823 -0.76319504 1.4286652e+32 4
-5.7231345 4.4649496 -0.76326299 1.4286652e+32 4
-5.7675385 4.4729843 -0.76746714 1.4286652e+32 4
-5.7928748 4.4660277 -0.76912725 1.4286652e+32 4
-5.8397427 4.4754581 -0.77363884 1.4286652e+32 4
-5.8740106 4.4749794 -0.77647144 2.1429748e+32 4
-6.3062587 4.7756944 -0.83179128 2.8572842e+32 4
-6.3220105 4.7590928 -0.83206123 2.8572842e+32 4
-6.3505721 4.752058 -0.83401924 2.8572842e+32 4
-6.3511686 4.7240887 -0.83231091 2.8572842e+32 4
-6.3661709 4.7068863 -0.83250052 2.8572842e+32 4
-6.3837757 4.6915836 -0.83303583 2.8572842e+32 4
-6.4017124 4.6764865 -0.83361894 2.8572842e+32 4
-6.4154863 4.6583276 -0.83366555 2.8572842e+32 4
-6.4220204 4.6349401 -0.83278012 2.8572842e+32 4
-6.4302201 4.6128068 -0.83212066 2.8572842e+32 4
-6.4402828 4.5920458 -0.83171135 2.8572842e+32 4
-6.47644 4.5898046 -0.83467358 2.8572842e+32 4
-6.4698901 4.5572834 -0.83213788 2.8572842e+32 4
-6.4886646 4.5426607 -0.83286983 2.8572842e+32 4
-6.5031652 4.5250149 -0.83305818 2.8572842e+32 4
-6.5222211 4.5105066 -0.83383507 2.8572842e+32 4
-6.5391459 4.4944816 -0.83434379 2.8572842e+32 4
-6.5433898 4.4697609 -0.83324265 2.8572842e+32 4
-6.5550747 4.4501638 -0.83309829 2.8572842e+32 4
-6.5629077 4.4279776 -0.83247286 2.8572842e+32 4
-6.5751529 4.4087906 -0.83241528 2.8572842e+32 4
-6.5918565 4.3925781 -0.83292806 2.8572842e+32 4
-6.6103997 4.3775501 -0.83367783 2.8572842e+32 4
-6.6253901 4.3601346 -0.83398443 2.8572842e+32 4
-6.6277499 4.3344388 -0.83270979 2.8572842e+32 4
-6.6389518 4.3145719 -0.83255565 2.8572842e+32 4
-6.6604166 4.301343 -0.83369356 2.8572842e+32 4
-6.6649623 4.2771821 -0.83272028 2.8572842e+32 4
-6.6844678 4.2626238 -0.83362305 2.8572842e+32 4
-6.6939859 4.2416787 -0.83328623 2.8572842e+32 4
-6.7067299 4.2227859 -0.83335829 2.8572842e+32 4
-6.719553 4.2039375 -0.83344674 2.8572842e+32 4
-6.7300687 4.1836491 -0.83325613 2.8572842e+32 4
-6.7410345 4.1636505 -0.83312863 2.8572842e+32 4
-6.7507877 4.1429162 -0.83285886 2.8572842e+32 4
-6.7606688 4.1222763 -0.83261269 2.8572842e+32 4
-6.7726159 4.1029038 -0.83262825 2.8572842e+32 4
-6.7854762 4.0840802 -0.83276272 2.8572842e+32 4
-6.8044171 4.0688829 -0.8336485 2.8572842e+32 4
-6.8205528 4.0519633 -0.83419508 2.8572842e+32 4
-6.8298807 4.0309906 -0.83391541 2.8572842e+32 4
-6.8380795 4.0093737 -0.83350593 2.8572842e+32 4
-6.8437891 3.9863322 -0.83280182 2.8572842e+32 4
-6.8560987 3.967154 -0.83290875 2.8572842e+32 4
-6.876472 3.9526038 -0.83400017 2.8572842e+32 4
-6.8730912 3.9244213 -0.83221859 2.8572842e+32 4
-6.8921762 3.9090931 -0.83316559 2.8572842e+32 4
-6.9034734 3.8893175 -0.83317637 2.8572842e+32 4
-6.9078598 3.8656738 -0.8323614 2.8572842e+32 4
-6.9224014 3.8477254 -0.8327775 2.8572842e+32 4
-6.9380207 3.8303456 -0.8333286 2.8572842e+32 4
-6.9451699 3.8082871 -0.83286917 2.8572842e+32 4
-6.957098 3.7888596 -0.83299017 2.8572842e+32 4
-6.9730744 3.7716138 -0.83360165 2.8572842e+32 4
-6.9756107 3.7471104 -0.83261389 2.8572842e+32 4
-6.9934554 3.7308342 -0.83346039 2.8572842e+32 4
-7.0108004 3.7142413 -0.83425176 2.8572842e+32 4
-7.0181298 3.6923294 -0.8338576 2.8572842e+32 4
-7.0135727 3.6642318 -0.83206135 2.8572842e+32 4
-7.0349226 3.6496851 -0.83334625 2.8572842e+32 4
-7.0498762 3.6317639 -0.83387762 2.8572842e+32 4
-7.0412321 3.6017394 -0.83162725 2.8572842e+32 4
-7.0653238 3.588479 -0.83325106 2.8572842e+32 4
-7.0648355 3.5627234 -0.83198231 2.8572842e+32 4
-7.0894508 3.5496147 -0.83367616 2.8572842e+32 4
-7.0954747 3.5271602 -0.83318895 2.8572842e+32 4
-7.1033678 3.5056577 -0.83292913 2.8572842e+32 4
-7.1127687 3.4849098 -0.8328535 2.8572842e+32 4
-7.1372681 3.4715097 -0.83455032 2.8572842e+32 4
-7.1360588 3.4455936 -0.83324748 2.8572842e+32 4
-7.1535459 3.4287171 -0.83413523 2.8572842e+32 4
-7.1423635 3.3981466 -0.83168894 2.8572842e+32 4
-7.1788893 3.3902543 -0.83480406 2.8572842e+32 4
-7.1705384 3.3611379 -0.83270603 2.8572842e+32 4
-7.1812496 3.3410165 -0.83283132 2.8572842e+32 4
-7.1924829 3.3211281 -0.83302361 2.8572842e+32 4
-7.1939659 3.2967601 -0.83209443 2.8572842e+32 4
-7.2177114 3.282572 -0.83374619 2.8572842e+32 4
-7.2329473 3.2644444 -0.83441883 2.8572842e+32 4
-7.2206292 3.2339356 -0.83192199 2.8572842e+32 4
-7.2346659 3.2152886 -0.83247101 2.8572842e+32 4
-7.2489057 3.1966982 -0.83304888 2.8572842e+32 4
-7.2581944 3.1759067 -0.83306384 2.8572842e+32 4
-7.2764421 3.1590035 -0.83411264 2.8572842e+32 4
-7.279428 3.1354642 -0.83341843 2.8572842e+32 4
-7.2884407 3.1145411 -0.83342189 2.8572842e+32 4
-7.3041487 3.0964561 -0.83419687 2.8572842e+32 4
-7.3010564 3.0704186 -0.8328324 2.8572842e+32 4
-7.3101416 3.0495415 -0.83286542 2.8572842e+32 4
-7.3169308 3.0277123 -0.83264399 2.8572842e+32 4
-7.3312387 3.0089822 -0.83328462 2.8572842e+32 4
-7.3403583 2.9881017 -0.83334148 2.8572842e+32 4
-7.3361387 2.9618323 -0.83189249 2.8572842e+32 4
-7.343039 2.9401002 -0.8317132 2.8572842e+32 4
-7.3556061 2.9206288 -0.83218241 2.8572842e+32 4
-7.3708439 2.9021809 -0.83295912 2.8572842e+32 4
-7.3792319 2.8810132 -0.83296782 2.8572842e+32 4
-7.389173 2.8604457 -0.83315849 2.8572842e+32 4
-7.389451 2.8361583 -0.83226722 2.8572842e+32 4
-7.405313 2.8178527 -0.83313805 2.8572842e+32 4
-7.4114385 2.7958229 -0.83291966 2.8572842e+32 4
-7.4226456 2.7757063 -0.83327913 2.8572842e+32 4
-7.4356189 2.756223 -0.83384269 2.8572842e+32 4
-7.4230385 2.727318 -0.83154941 2.8572842e+32 4
-7.4439964 2.7107592 -0.83302087 2.8572842e+32 4
-7.4424357 2.6859877 -0.83197886 2.8572842e+32 4
-7.4629974 2.669189 -0.83341634 2.8572842e+32 4
-7.4692249 2.6472261 -0.83325863 2.8572842e+32 4
-7.4700227 2.6233654 -0.83250302 2.8572842e+32 4
-7.4762764 2.6014466 -0.83236319 2.8572842e+32 4
-7.4907994 2.5823867 -0.83315027 2.8572842e+32 4
-7.5019531 2.5621302 -0.83356827 2.8572842e+32 4
-7.5017538 2.5380085 -0.83273214 2.8572842e+32 4
-7.509984 2.5167596 -0.83283931 2.8572842e+32 4
-7.5007815 2.4897182 -0.83102173 2.8572842e+32 4
-7.5185714 2.4716544 -0.8322022 2.8572842e+32 4
-7.5359473 2.453388 -0.83334148 2.8572842e+32 4
-7.5445695 2.4322338 -0.83351845 2.8572842e+32 4
-7.542088 2.4075248 -0.83247632 2.8572842e+32 4
-7.5505614 2.3863375 -0.83265108 2.8572842e+32 4
-7.5555863 2.3640611 -0.83245242 2.8572842e+32 4
-7.568429 2.3442175 -0.8331216 2.8572842e+32 4
-7.5760326 2.3227289 -0.83322024 2.8572842e+32 4
-7.5764475 2.2990534 -0.83253568 2.8572842e+32 4
-7.5861239 2.2781978 -0.83287597 2.8572842e+32 4
-7.5939474 2.256772 -0.83301932 2.8572842e+32 4
-7.5961599 2.2336881 -0.83255428 2.8572842e+32 4
-7.6006913 2.2113049 -0.83235091 2.8572842e+32 4
-7.6167579 2.1922534 -0.83341688 2.8572842e+32 4
-7.6188517 2.1691628 -0.83296031 2.8572842e+32 4
-7.6201992 2.1458876 -0.83242989 2.8572842e+32 4
-7.6343312 2.1262031 -0.83330262 2.8572842e+32 4
-7.6398892 2.1041074 -0.83324569 2.8572842e+32 4
-7.6506205 2.0834234 -0.83375955 2.8572842e+32 4
-7.6559296 2.0612504 -0.83368897 2.8572842e+32 4
-7.6636305 2.0397179 -0.83388573 2.8572842e+32 4
-7.6670356 2.0170438 -0.83362198 2.8572842e+32 4
-7.6626391 1.9923559 -0.83251786 2.8572842e+32 4
-7.6801057 1.9733478 -0.83379585 2.8572842e+32 4
-7.6877408 1.9517715 -0.83401227 2.8572842e+32 4
-7.6838913 1.9273019 -0.83299023 2.8572842e+32 4
-7.6864939 1.9044884 -0.83267546 2.8572842e+32 4
-7.6965947 1.8835275 -0.83317977 2.8572842e+32 4
-7.7109003 1.8635542 -0.83414513 2.8572842e+32 4
-7.7110481 1.840148 -0.83358556 2.8572842e+32 4
-7.7209435 1.8190694 -0.83408654 2.8572842e+32 4
-7.7166977 1.7946737 -0.83306724 2.8572842e+32 4
-7.7216048 1.772436 -0.83304352 2.8572842e+32 4
-7.7185507 1.748396 -0.83216846 2.8572842e+32 4
-7.7357507 1.7289317 -0.83348364 2.8572842e+32 4
-7.7432475 1.7072542 -0.83375925 2.8572842e+32 4
-7.7409778 1.6834371 -0.83299035 2.8572842e+32 4
-7.7438231 1.6607598 -0.83277947 2.8572842e+32 4
-7.7675014 1.6424993 -0.83481467 2.8572842e+32 4
-7.7519245 1.6159421 -0.83263791 2.8572842e+32 4
-7.7590685 1.5941744 -0.83290964 2.8572842e+32 4
-7.7579169 1.5707116 -0.83229798 2.8572842e+32 4
-7.7581244 1.5475539 -0.83183956 2.8572842e+32 4
-7.7698154 1.526678 -0.83261919 2.8572842e+32 4
-7.7823396 1.5059196 -0.83349395 2.8572842e+32 4
-7.7875586 1.4837207 -0.83359277 2.8572842e+32 4
-7.7774301 1.4586375 -0.83205634 2.8572842e+32 4
-7.7983351 1.4393675 -0.83384681 2.8572842e+32 4
-7.789773 1.4146467 -0.83249307 2.8572842e+32 4
-7.8015418 1.3936325 -0.83331925 2.8572842e+32 4
-7.7989798 1.370055 -0.83262151 2.8572842e+32 4
-7.8098145 1.3488295 -0.83336091 2.8572842e+32 4
-7.80896 1.3255788 -0.83285975 2.8572842e+32 4
-7.8235545 1.3049322 -0.83401281 2.8572842e+32 4
-7.8180175 1.2809235 -0.83302665 2.8572842e+32 4
-7.8162398 1.2575738 -0.83244866 2.8572842e+32 4
-7.8282728 1.2364373 -0.83334821 2.8572842e+32 4
-7.8257394 1.212993 -0.83270395 2.8572842e+32 4
-7.8419495 1.1924343 -0.83406067 2.8572842e+32 4
-7.8387122 1.1689005 -0.83335555 2.8572842e+32 4
-7.8364615 1.1455497 -0.83276278 2.8572842e+32 4
-7.8291698 1.1215092 -0.83164197 2.8572842e+32 4
-7.8438306 1.1006107 -0.83285981 2.8572842e+32 4
-7.8505421 1.0785527 -0.83323979 2.8572842e+32 4
-7.8515553 1.0557073 -0.83302182 2.8572842e+32 4
-7.8616776 1.034072 -0.83377701 2.8572842e+32 4
-7.8603311 1.0109198 -0.83332258 2.8572842e+32 4
-7.8533773 0.98708773 -0.83228111 2.8572842e+32 4
-7.8708053 0.96630615 -0.8338303 2.8572842e+32 4
-7.8670688 0.94290251 -0.83314395 2.8572842e+32 4
-7.8718224 0.92052919 -0.83336371 2.8572842e+32 4
-7.8705392 0.89745528 -0.83295131 2.8572842e+32 4
-7.8780823 0.87538463 -0.83347988 2.8572842e+32 4
-7.8778815 0.85244673 -0.83319598 2.8572842e+32 4
-7.8618379 0.827856 -0.83124405 2.8572842e+32 4
-7.8827147 0.80715281 -0.8332026 2.8572842e+32 4
-7.8768725 0.78368354 -0.83234358 2.8572842e+32 4
-7.882442 0.76136351 -0.83269739 2.8572842e+32 4
-7.8937569 0.73956215 -0.83366472 2.8572842e+32 4
-7.8817325 0.71558851 -0.83217412 2.8572842e+32 4
-7.8821373 0.69278896 -0.83200324 2.8572842e+32 4
-7.9042754 0.67184579 -0.83413273 2.8572842e+32 4
-7.906817 0.64917678 -0.83420062 2.8572842e+32 4
-7.9035206 0.62604141 -0.83365953 2.8572842e+32 4
-7.9139891 0.60398597 -0.83457714 2.8572842e+32 4
-7.8848901 0.57897472 -0.83132958 2.8572842e+32 4
-7.9069114 0.55774724 -0.83347887 2.8572842e+32 4
-7.9003048 0.53446507 -0.8326171 2.8572842e+32 4
-7.8975301 0.51147813 -0.83216631 2.8572842e+32 4
-7.9073787 0.48929679 -0.83305246 2.8572842e+32 4
-7.9117346 0.46674269 -0.83336657 2.8572842e+32 4
-7.9189391 0.44433105 -0.83398747 2.8572842e+32 4
-7.9199452 0.42155531 -0.83396238 2.8572842e+32 4
-7.9226108 0.39886427 -0.83411884 2.8572842e+32 4
-7.9257321 0.37618613 -0.8343302 2.8572842e+32 4
-7.9078302 0.35255894 -0.83233559 2.8572842e+32 4
-7.9251232 0.3305085 -0.83405232 2.8572842e+32 4
-7.9214277 0.30754903 -0.8335669 2.8572842e+32 4
-7.9176683 0.28461364 -0.83308184 2.8572842e+32 4
-7.9226508 0.26199368 -0.83352333 2.8572842e+32 4
-7.9264679 0.23931418 -0.83384913 2.8572842e+32 4
-7.9220743 0.21639241 -0.83331805 2.8572842e+32 4
-7.9177232 0.19350055 -0.83279848 2.8572842e+32 4
-7.9254074 0.17089641 -0.83355153 2.8572842e+32 4
-7.9180164 0.1479692 -0.83272606 2.8572842e+32 4
-7.9089446 0.12506035 -0.83173078 2.8572842e+32 4
-7.921989 0.10249187 -0.83306813 2.8572842e+32 4
-7.9203963 0.079702787 -0.83287311 2.8572842e+32 4
-7.9269571 0.056982789 -0.83354235 2.8572842e+32 4
-7.9337769 0.034227133 -0.83424568 2.8572842e+32 4
-7.9263821 0.011412369 -0.83346123 2.8572842e+32 4
-7.9172616 2.1009164e-05 -0.83250129 2.8572842e+32 4
-6.3262186 -0.0091084605 -0.81446546 2.8572842e+32 3
-6.339467 -0.027349114 -0.8161779 2.8572842e+32 3
-6.3353257 -0.045541372 -0.81565821 2.8572842e+32 3
-6.3345304 -0.063744247 -0.81557602 2.8572842e+32 3
-6.3233728 -0.081809543 -0.81416637 2.8572842e+32 3
-6.3214502 -0.09995807 -0.81395251 2.8572842e+32 3
-6.3391032 -0.118463 -0.81626594 2.8572842e+32 3
-6.3232141 -0.13634814 -0.81426704 2.8572842e+32 3
-6.3331676 -0.15477572 -0.81560272 2.8572842e+32 3
-6.316287 -0.17253014 -0.81348932 2.8572842e+32 3
-6.325974 -0.19099243 -0.81480426 2.8572842e+32 3
-6.317194 -0.20890291 -0.81374735 2.8572842e+32 3
-6.3274989 -0.22745237 -0.81515563 2.8572842e+32 3
-6.3181829 -0.24530312 -0.81404293 2.8572842e+32 3
-6.3207259 -0.26359886 -0.81446487 2.8572842e+32 3
-6.3368354 -0.28251845 -0.81664187 2.8572842e+32 3
-6.3181267 -0.29988292 -0.81433856 2.8572842e+32 3
-6.3224754 -0.31830537 -0.81501365 2.8572842e+32 3
-6.3299298 -0.33692348 -0.81609607 2.8572842e+32 3
-6.3204374 -0.35463923 -0.81500024 2.8572842e+32 3
-6.3206072 -0.37287617 -0.815157 2.8572842e+32 3
-6.3105865 -0.39048967 -0.81400603 2.8572842e+32 3
-6.3070126 -0.40846935 -0.81369311 2.8572842e+32 3
-6.3115287 -0.42698246 -0.81443071 2.8572842e+32 3
-6.3032112 -0.4446235 -0.813519 2.8572842e+32 3
-6.3039856 -0.46289146 -0.81378728 2.8572842e+32 3
-6.3093686 -0.48152331 -0.81465751 2.8572842e+32 3
-6.3070111 -0.49958113 -0.81453514 2.8572842e+32 3
-6.2953911 -0.51687318 -0.81322294 2.8572842e+32 3
-6.3060341 -0.53599888 -0.81479347 2.8572842e+32 3
-6.3053193 -0.55419683 -0.81490356 2.8572842e+32 3
-6.2855458 -0.57066953 -0.81255662 2.8572842e+32 3
-6.3117323 -0.59134305 -0.81615818 2.8572842e+32 3
-6.2875752 -0.60731566 -0.81325686 2.8572842e+32 3
-6.2953954 -0.62633967 -0.81449783 2.8572842e+32 3
-6.2841868 -0.64347112 -0.81328362 2.8572842e+32 3
-6.2859912 -0.66191846 -0.81375998 2.8572842e+32 3
-6.2978735 -0.68147784 -0.81554848 2.8572842e+32 3
-6.2833986 -0.69818902 -0.81393051 2.8572842e+32 3
-6.2696247 -0.71490753 -0.8124091 2.8572842e+32 3
-6.2754631 -0.73385131 -0.81343561 2.8572842e+32 3
-6.2766786 -0.75228727 -0.81387001 2.8572842e+32 3
-6.2798672 -0.77098519 -0.81456745 2.8572842e+32 3
-6.2824736 -0.78964144 -0.81519657 2.8572842e+32 3
-6.2641921 -0.80563986 -0.81312156 2.8572842e+32 3
-6.2684331 -0.82450736 -0.81397635 2.8572842e+32 3
-6.2650857 -0.84239322 -0.81385267 2.8572842e+32 3
-6.261517 -0.86024326 -0.81370693 2.8572842e+32 3
-6.2758274 -0.88059562 -0.81589222 2.8572842e+32 3
-6.2817779 -0.89984912 -0.81699866 2.8572842e+32 3
-6.2481966 -0.91337383 -0.81296921 2.8572842e+32 3
-6.2496495 -0.93194115 -0.81350344 2.8572842e+32 3
-6.2533903 -0.95088059 -0.8143428 2.8572842e+32 3
-6.2453828 -0.96803713 -0.81365901 2.8572842e+32 3
-6.2386522 -0.98536456 -0.81314772 2.8572842e+32 3
-6.2519121 -1.0058854 -0.8152495 2.8572842e+32 3
-6.2582741 -1.0253712 -0.81646001 2.8572842e+32 3
-6.2477183 -1.0420903 -0.81547034 2.8572842e+32 3
-6.2376289 -1.0588437 -0.8145473 2.8572842e+32 3
-6.2473931 -1.0789845 -0.81622398 2.8572842e+32 3
-6.2266526 -1.0938426 -0.81392163 2.8572842e+32 3
-6.2348766 -1.1137706 -0.81541175 2.8572842e+32 3
-6.2300668 -1.1313993 -0.81520462 2.8572842e+32 3
-6.2272325 -1.1493833 -0.81526262 2.8572842e+32 3
-6.2147989 -1.16557 -0.81407011 2.8572842e+32 3
-6.1963267 -1.180552 -0.81209159 2.8572842e+32 3
-6.2042766 -1.200557 -0.81358242 2.8572842e+32 3
-6.2094464 -1.2200836 -0.81471682 2.8572842e+32 3
-6.2038445 -1.2375135 -0.8144452 2.8572842e+32 3
-6.194272 -1.2541273 -0.8136583 2.8572842e+32 3
-6.1992412 -1.273693 -0.81478864 2.8572842e+32 3
-6.1907887 -1.2905126 -0.81416184 2.8572842e+32 3
-6.1852512 -1.3079201 -0.81392461 2.8572842e+32 3
-6.1801691 -1.3254145 -0.81375378 2.8572842e+32 3
-6.1824303 -1.3444984 -0.81455702 2.8572842e+32 3
-6.1736379 -1.361182 -0.81391066 2.8572842e+32 3
-6.1864357 -1.3826616 -0.81611848 2.8572842e+32 3
-6.174418 -1.3986211 -0.81506002 2.8572842e+32 3
-6.1664758 -1.4154679 -0.81454533 2.8572842e+32 3
-6.1643591 -1.4336461 -0.8148067 2.8572842e+32 3
-6.1595435 -1.4512005 -0.81471813 2.8572842e+32 3
-6.158596 -1.4696741 -0.81514817 2.8572842e+32 3
-6.1449256 -1.4850928 -0.81390041 2.8572842e+32 3
-6.156074 -1.5065279 -0.81594718 2.8572842e+32 3
-6.1422739 -1.5218759 -0.81469446 2.8572842e+32 3
-6.1267247 -1.5367277 -0.8132146 2.8572842e+32 3
-6.1349959 -1.557559 -0.81490332 2.8572842e+32 3
-6.1198597 -1.5724539 -0.81348974 2.8572842e+32 3
-6.1295214 -1.5937314 -0.81537962 2.8572842e+32 3
-6.1220436 -1.6105872 -0.81499732 2.8572842e+32 3
-6.1142106 -1.6273313 -0.81457388 2.8572842e+32 3
-6.1111641 -1.6453443 -0.81479472 2.8572842e+32 3
-6.1176686 -1.6659688 -0.81629705 2.8572842e+32 3
-6.1046906 -1.6812972 -0.81520677 2.8572842e+32 3
-6.0819302 -1.6938509 -0.81281418 2.8572842e+32 3
-6.1012573 -1.7181457 -0.81605375 2.8572842e+32 3
-6.0979104 -1.7361356 -0.81627017 2.8572842e+32 3
-6.0752959 -1.74859 -0.81391239 2.8572842e+32 3
-6.0754099 -1.7675476 -0.81460494 2.8572842e+32 3
-6.0628095 -1.7827989 -0.81359917 2.8572842e+32 3
-6.0816517 -1.8073475 -0.81682146 2.8572842e+32 3
-6.0552607 -1.8184625 -0.81397551 2.8572842e+32 3
-6.044106 -1.8340682 -0.81318134 2.8572842e+32 3
-6.0468998 -1.8539135 -0.81427079 2.8572842e+32 3
-6.0464091 -1.8727926 -0.81492621 2.8572842e+32 3
-6.0412331 -1.8902365 -0.8149575 2.8572842e+32 3
-6.0216641 -1.9031332 -0.81305224 2.8572842e+32 3
-6.0300689 -1.9248701 -0.81493068 2.8572842e+32 3
-6.0147891 -1.93906 -0.81361556 2.8572842e+32 3
-6.0083351 -1.9560616 -0.81349969 2.8572842e+32 3
-6.004467 -1.9739078 -0.81374079 2.8572842e+32 3
-6.0144491 -1.996363 -0.81586784 2.8572842e+32 3
-5.99155 -2.0078993 -0.81354105 2.8572842e+32 3
-5.9930625 -2.027585 -0.81453443 2.8572842e+32 3
-5.9875288 -2.0449114 -0.81457782 2.8572842e+32 3
-5.9798536 -2.0615015 -0.81433642 2.8572842e+32 3
-5.9871688 -2.0832965 -0.81614465 2.8572842e+32 3
-5.9595428 -2.0929065 -0.81319541 2.8572842e+32 3
-5.9521294 -2.1095405 -0.81300789 2.8572842e+32 3
-5.9468417 -2.1269262 -0.81311733 2.8572842e+32 3
-5.9617352 -2.1516006 -0.81599593 2.8572842e+32 3
-5.9419084 -2.1637683 -0.81413007 2.8572842e+32 3
-5.9370284 -2.1813393 -0.81431717 2.8572842e+32 3
-5.9268894 -2.1969695 -0.81378925 2.8572842e+32 3
-5.924931 -2.2156341 -0.81439137 2.8572842e+32 3
-5.9091806 -2.229125 -0.8131038 2.8572842e+32 3
-5.9065347 -2.247541 -0.81362528 2.8572842e+32 3
-5.9153609 -2.270385 -0.81573659 2.8572842e+32 3
-5.9041743 -2.2855833 -0.81509656 2.8572842e+32 3
-5.8806796 -2.2959456 -0.81276065 2.8572842e+32 3
-5.900733 -2.3233426 -0.81645185 2.8572842e+32 3
-5.8680215 -2.3299661 -0.81284899 2.8572842e+32 3
-5.870388 -2.3504612 -0.81410927 2.8572842e+32 3
-5.8654208 -2.3680568 -0.81436098 2.8572842e+32 3
-5.8795013 -2.3934183 -0.81726772 2.8572842e+32 3
-5.8516531 -2.4017112 -0.81435287 2.8572842e+32 3
-5.8305488 -2.4126544 -0.81237757 2.8572842e+32 3
-5.8311744 -2.4325669 -0.81343561 2.8572842e+32 3
-5.8372607 -2.4548273 -0.81526554 2.8572842e+32 3
-5.8183274 -2.4665701 -0.81360805 2.8572842e+32 3
-5.819932 -2.487009 -0.81482863 2.8572842e+32 3
-5.815752 -2.5050156 -0.81524807 2.8572842e+32 3
-5.8100457 -2.5223806 -0.81546116 2.8572842e+32 3
-5.7956333 -2.5359461 -0.81445795 2.8572842e+32 3
-5.7921243 -2.5542717 -0.81499326 2.8572842e+32 3
-5.7871408 -2.5719678 -0.81532884 2.8572842e+32 3
-5.7779422 -2.5877929 -0.81507742 2.8572842e+32 3
-5.7769761 -2.6073213 -0.81599498 2.8572842e+32 3
-5.763557 -2.6212313 -0.81516033 2.8572842e+32 3
-5.7443295 -2.6324389 -0.81350774 2.8572842e+32 3
-5.7487378 -2.654479 -0.81520915 2.8572842e+32 3
-5.7336297 -2.6675234 -0.81415069 2.8572842e+32 3
