# .PCD v0.7 - Point Cloud Data file format
VERSION 0.7
FIELDS x y z intensity ring
SIZE 4 4 4 4 2
TYPE F F F F U
COUNT 1 1 1 1 1
WIDTH 1086
HEIGHT 1
VIEWPOINT 0 0 0 1 0 0 0
POINTS 1086
DATA ascii
2.0515363 -5.2770605 2.1358502 1.7179382e+19 24
2.0665131 -5.2706761 2.1356614 1.7179382e+19 24
2.1063991 -5.3272977 2.1610487 1.7179382e+19 24
2.1214547 -5.3205996 2.1607959 1.7179382e+19 24
2.1373863 -5.3160901 2.1614509 1.7179382e+19 24
2.1573262 -5.3214417 2.1661386 1.7179382e+19 24
2.177336 -5.3267746 2.1708481 1.7179382e+19 24
2.1929653 -5.3212891 2.1711724 1.7179382e+19 24
2.2107592 -5.3210011 2.1736386 1.7179382e+19 24
2.2259276 -5.3143463 2.1735249 1.7179382e+19 24
2.2518587 -5.3331857 2.1838679 1.7179382e+19 24
2.2706482 -5.3348436 2.1872106 1.7179382e+19 24
2.2829041 -5.3211427 2.1842744 1.7179382e+19 24
2.3042536 -5.3285832 2.1900382 1.7179382e+19 24
2.3190103 -5.3206768 2.1895194 1.7179382e+19 24
2.3417811 -5.3310347 2.1965425 1.7179382e+19 24
2.3561807 -5.3222175 2.1956909 1.7179382e+19 24
2.3833754 -5.3421111 2.2067151 1.7179382e+19 24
2.3945267 -5.3259115 2.2028575 1.7179382e+19 24
2.4170198 -5.334888 2.2094343 1.7179382e+19 24
2.4294364 -5.3215499 2.2067933 1.7179382e+19 24
2.4479058 -5.321466 2.2096672 1.7179382e+19 24
2.4728129 -5.3351679 2.2182989 1.7179382e+19 24
2.4885678 -5.3289595 2.2186823 1.7179382e+19 24
2.5094092 -5.333549 2.2235868 1.7179382e+19 24
2.5320113 -5.3416772 2.2300007 1.7179382e+19 24
2.5437536 -5.3268375 2.2268486 1.7179382e+19 24
2.5958097 -5.3959084 2.2588329 1.7179382e+19 24
2.6041992 -5.373755 2.2526832 1.7179382e+19 24
2.6127865 -5.3522205 2.2467949 1.7179382e+19 24
2.6315782 -5.3516407 2.2497175 1.7179382e+19 24
2.6364107 -5.3227777 2.2407603 1.7179382e+19 24
2.6359377 -5.2835851 2.2274415 1.7179382e+19 24
2.6305459 -5.2350559 2.210161 1.7179382e+19 24
2.6382613 -5.2130079 2.2040451 1.7179382e+19 24
2.6345537 -5.1687546 2.1885276 1.7179382e+19 24
2.6389196 -5.1407456 2.1798706 1.7179382e+19 24
2.6382201 -5.1032257 2.1671674 1.7179382e+19 24
2.6380589 -5.0671587 2.1550622 1.7179382e+19 24
2.6373291 -5.0304041 2.1426454 1.7179382e+19 24
2.6361942 -4.9932871 2.1300545 1.7179382e+19 24
2.6319332 -4.9506984 2.1151052 1.7179382e+19 24
2.634639 -4.9216061 2.1059027 1.7179382e+19 24
2.6354616 -4.8893156 2.0953186 1.7179382e+19 24
2.6343746 -4.8538446 2.0833538 1.7179382e+19 24
2.6393385 -4.8298264 2.0762923 1.7179382e+19 24
2.6381104 -4.7947764 2.0644758 1.7179382e+19 24
2.6440957 -4.7731204 2.0584152 1.7179382e+19 24
2.6352339 -4.7250319 2.040935 1.7179382e+19 24
2.6443253 -4.7094612 2.0374842 1.7179382e+19 24
2.6391816 -4.6688151 2.0231726 1.7179382e+19 24
2.6550944 -4.6656103 2.0250826 1.7179382e+19 24
2.6777875 -4.6741824 2.0321355 1.7179382e+19 24
2.6886249 -4.6619816 2.0301824 1.7179382e+19 24
2.7130282 -4.6732073 2.0384583 1.7179382e+19 24
2.7266924 -4.6658063 2.0386403 1.7179382e+19 24
2.751719 -4.6777148 2.0472908 1.7179382e+19 24
2.7668266 -4.6726131 2.0485301 1.7179382e+19 24
2.7781475 -4.6611214 2.0469842 1.7179382e+19 24
2.7997525 -4.6668172 2.0530112 1.7179382e+19 24
2.8240829 -4.6768479 2.0609865 1.7179382e+19 24
2.8406806 -4.6739221 2.0632865 1.7179382e+19 24
2.8585429 -4.672996 2.0664964 1.7179382e+19 24
2.8677204 -4.6578698 2.0634439 1.7179382e+19 24
2.8895309 -4.6632199 2.0694845 1.7179382e+19 24
2.9092855 -4.6650987 2.0740209 1.7179382e+19 24
2.932447 -4.6722755 2.0809503 1.7179382e+19 24
2.9463756 -4.6646371 2.0813112 1.7179382e+19 24
2.9682636 -4.6695089 2.0872834 1.7179382e+19 24
2.9913235 -4.676044 2.0940392 1.7179382e+19 24
3.0072975 -4.671382 2.0958138 1.7179382e+19 24
3.0219858 -4.6646852 2.0966976 1.7179382e+19 24
3.0484686 -4.6760554 2.1057379 1.7179382e+19 24
3.0701237 -4.6798148 2.1113961 1.7179382e+19 24
3.0844362 -4.6722951 2.1119945 1.7179382e+19 24
3.1063526 -4.6762056 2.1177893 1.7179382e+19 24
3.1237509 -4.6731977 2.1204846 1.2884537e+19 24
4.2443013 6.3892374 2.8935981 0 24
4.2118239 6.3800592 2.8839467 0 24
4.1899142 6.3867211 2.8815024 0 24
4.1564002 6.375515 2.8710446 0 24
4.1167336 6.3545189 2.8562493 0 24
4.1037421 6.3745427 2.859936 0 24
4.0673909 6.3581557 2.8473272 0 24
4.0297875 6.3394408 2.8337474 0 24
4.0053515 6.3411846 2.8293691 0 24
3.9741669 6.3320508 2.8201852 0 24
3.9521739 6.3373919 2.817493 0 24
3.9235446 6.3319449 2.8100462 0 24
3.8980663 6.3314004 2.8048205 0 24
3.8670418 6.3216372 2.7955599 0 24
3.8414769 6.3205853 2.7902005 0 24
3.8092785 6.3083901 2.7799721 0 24
3.7858574 6.3105235 2.7761054 0 24
3.7631617 6.3137584 2.7727587 0 24
3.7323842 6.3032455 2.7634192 0 24
3.7013726 6.2920542 2.7538371 0 24
3.6803427 6.2976542 2.751647 0 24
3.6538882 6.2938442 2.7453821 0 24
3.6192796 6.2757044 2.7329204 0 24
3.591486 6.2690787 2.7255285 0 24
3.5760384 6.2839203 2.7275012 0 24
3.535773 6.2549205 2.7104914 0 24
3.5194638 6.2680559 2.7117887 0 24
3.4883213 6.2546358 2.7016337 0 24
3.4645715 6.2542424 2.6971512 0 24
3.4354975 6.244031 2.688478 0 24
3.4103723 6.2407703 2.6828423 0 24
3.3876851 6.2418218 2.6790974 0 24
3.3657153 6.2440844 2.6759052 0 24
3.3342178 6.228446 2.6650856 0 24
3.3134592 6.232657 2.662801 0 24
3.2877245 6.2273684 2.6564934 0 24
3.2616439 6.2212133 2.6498575 0 24
3.2416592 6.2265482 2.6481504 0 24
3.213244 6.2155199 2.6395211 0 24
3.1933217 6.2207484 2.6378326 0 24
3.1616626 6.2028942 2.6263974 0 24
3.1378472 6.2001529 2.621407 0 24
3.1194835 6.2080917 2.6209619 0 24
3.0908372 6.1954055 2.6118445 0 24
3.0679793 6.1940928 2.6075628 0 24
3.0450728 6.192533 2.6032109 0 24
3.0217378 6.1899457 2.5984614 0 24
2.9968452 6.1839786 2.5923297 0 24
2.9742768 6.1826272 2.5881689 0 24
2.9511907 6.1800456 2.5835264 0 24
2.9269719 6.1749086 2.5778515 0 24
2.9092712 6.1834235 2.5779045 0 24
2.8766968 6.16009 2.564719 0 24
2.8586221 6.1675625 2.5643985 0 24
2.8303053 6.1527586 2.5548503 0 24
2.8113241 6.1580548 2.5536835 0 24
2.7876139 6.1528692 2.5481999 0 24
2.762218 6.1437316 2.541117 0 24
2.7445889 6.1517372 2.5411549 0 24
2.7231789 6.1512046 2.5376911 0 24
2.6915638 6.1273098 2.5246313 0 24
2.6766877 6.1413226 2.5272243 0 24
2.6514158 6.1313953 2.5199928 0 24
2.6305544 6.1314683 2.5169048 0 24
2.6130831 6.1393871 2.5170619 0 24
2.5823717 6.1159558 2.5044019 0 24
2.5657442 6.1256499 2.5053413 0 24
2.5466428 6.1294274 2.5038824 0 24
2.5198164 6.1144023 2.4947755 0 24
2.5003495 6.1170154 2.4928989 0 24
2.4791925 6.1153836 2.4893198 0 24
2.4570391 6.1111288 2.4847028 0 24
2.4308996 6.0966859 2.4759796 0 24
2.4092553 6.0932522 2.4717622 0 24
2.3937683 6.1053462 2.4738672 0 24
2.3706999 6.0980277 2.4681304 0 24
2.3478489 6.0910311 2.4625571 0 24
2.3263924 6.0874462 2.4583941 0 24
2.3146217 6.1092472 2.4645014 0 24
2.28737 6.0900955 2.4541132 0 24
2.2743523 6.1087217 2.4589746 0 24
2.2485402 6.0928926 2.4499912 0 24
2.2227314 6.0766754 2.440891 0 24
2.2076995 6.0897789 2.4435954 0 24
2.1788895 6.0646548 2.4309912 0 24
2.1661589 6.0841217 2.4362886 0 24
2.1476307 6.0873985 2.4351187 0 24
2.1216271 6.0692363 2.4254041 0 24
2.1020055 6.0690498 2.422905 0 24
2.0837858 6.0728312 2.4220135 0 24
2.0647669 6.0742197 2.4201903 0 24
2.0415168 6.0629568 2.4133549 0 24
2.0224936 6.0640373 2.4114609 0 24
1.9996817 6.0535579 2.4049981 0 24
1.9823239 6.0594335 2.4050589 0 24
1.959349 6.0479746 2.3982654 0 24
1.9448847 6.062706 2.4018805 0 24
1.9205912 6.0466752 2.3933325 0 24
1.904075 6.0549421 2.3944285 0 24
1.8838133 6.0512342 2.3908112 0 24
1.8630941 6.045855 2.3865602 0 24
1.8426523 6.0411639 2.3826079 0 24
1.8242447 6.0430036 2.3812556 0 24
1.8055553 6.0438285 2.3795259 0 24
1.7860603 6.0418353 2.3767102 0 24
1.7653806 6.0356398 2.3722672 0 24
1.747752 6.0397449 2.3718963 0 24
1.7232499 6.0198188 2.3621161 0 24
1.7052197 6.022203 2.3611188 0 24
1.6851505 6.0172501 2.3572681 0 24
1.6705447 6.0318046 2.361079 0 24
1.6519923 6.0321689 2.3593533 0 24
1.6345974 6.0367079 2.3592811 0 24
1.6146178 6.0315876 2.3554566 0 24
1.5939016 6.0234566 2.3504825 0 24
1.5752358 6.0228658 2.3484755 0 24
1.5544207 6.0138388 2.3432035 0 24
1.5385259 6.0237517 2.3453333 0 24
1.5193373 6.0207448 2.3424528 0 24
1.4999529 6.0167723 2.33922 0 24
1.4802213 6.0111842 2.3353839 0 24
1.4594626 6.0011268 2.3298368 0 24
1.4444788 6.0147529 2.3335056 0 24
1.4259828 6.0138116 2.3315406 0 24
1.4075788 6.0131316 2.3296988 0 24
1.3871577 6.0035977 2.3244507 0 24
1.3700773 6.0083551 2.3247583 0 24
1.3515646 6.0067697 2.3226323 0 24
1.3354752 6.0159507 2.3246884 0 24
1.3148459 6.0045466 2.3188117 0 24
1.295481 5.9985738 2.3150575 0 24
1.2793885 6.0076938 2.3171487 0 24
1.2588437 5.9957628 2.3111417 0 24
1.1955658 5.7768984 2.2254438 0 24
1.1763703 5.7676311 2.220562 0 24
1.1602709 5.7733927 2.2214873 0 24
1.1444535 5.7806525 2.2230055 0 24
1.127493 5.7821712 2.2223344 0 24
1.1055752 5.7578192 2.2117443 0 24
1.091091 5.7719235 2.2159483 0 24
1.0754915 5.7803845 2.2180007 0 24
1.0603491 5.7915154 2.2210932 0 24
1.0382807 5.7644615 2.2095642 0 24
1.0218903 5.7684526 2.209959 0 24
1.0043399 5.76582 2.2078354 0 24
0.98821777 5.7713375 2.2088513 0 24
0.97192079 5.7759104 2.2095232 0 24
0.95323396 5.7660909 2.2047095 0 24
0.93648797 5.7677679 2.2043123 0 24
0.91977191 5.7695951 2.2039914 0 24
0.90253252 5.7680469 2.2024 0 24
0.88522786 5.7659149 2.2006052 0 24
0.87004709 5.7777038 2.2041409 0 24
0.85231495 5.772583 2.2012439 0 24
0.83743978 5.7868967 2.205775 0 24
0.82087141 5.7897615 2.2059584 0 24
0.80415845 5.7916055 2.2057712 0 24
0.78471977 5.7733765 2.1979606 0 24
0.76710725 5.7679763 2.1950562 0 24
0.75136417 5.7766061 2.1975095 0 24
0.73322093 5.7666574 2.192914 0 24
0.71640539 5.7668285 2.1921871 0 24
0.70112985 5.7796044 2.1962683 0 24
0.68241793 5.763885 2.1895406 0 24
0.66618824 5.7687683 2.1906593 0 24
0.64794958 5.7559586 2.1850784 0 24
0.6331017 5.7732906 2.1909583 0 24
0.61682963 5.7781267 2.1921117 0 24
0.59965861 5.7744784 2.1900647 0 24
0.58207244 5.7664075 2.1863599 0 24
0.56539637 5.7670431 2.1859758 0 24
0.5487833 5.7682796 2.1858375 0 24
0.53327554 5.7814789 2.1902494 0 24
0.51650769 5.7813301 2.1896217 0 24
0.49895188 5.7719574 2.1855195 0 24
0.48319855 5.7834086 2.1893206 0 24
0.46647596 5.783565 2.1888633 0 24
0.44985825 5.7849822 2.1889012 0 24
0.43188846 5.7683501 2.1821294 0 24
0.41542053 5.7711473 2.1827266 0 24
0.39839283 5.7659769 2.1803291 0 24
0.38289472 5.7833586 2.1864765 0 24
0.36603937 5.7807903 2.1850989 0 24
0.34961009 5.7849269 2.1862733 0 24
0.33238494 5.775548 2.182359 0 24
0.31566238 5.7742724 2.1815252 0 24
0.29994252 5.7921166 2.187932 0 24
0.28175411 5.7614837 2.1760457 0 24
0.26586726 5.7769241 2.1815796 0 24
0.24958785 5.7852244 2.1844344 0 24
0.23297217 5.7862587 2.1845627 0 24
0.21589792 5.7750821 2.1801 0 24
0.19902816 5.7678638 2.17715 0 24
0.18251303 5.7704391 2.1779151 0 24
0.16660403 5.7945065 2.1868091 0 24
0.14935747 5.7721276 2.1781924 0 24
0.13282713 5.7751846 2.1791928 0 24
0.1162786 5.7781014 2.1801584 0 24
0.099769764 5.7841811 2.1823351 0 24
0.083060995 5.7786689 2.1801562 0 24
0.066552907 5.7877321 2.1834946 0 24
0.049801081 5.7744493 2.1784203 0 24
0.033222828 5.7779298 2.1796882 0 24
0.016654935 5.7917786 2.1848857 0 24
7.6617525e-06 5.774632 2.1784081 0 24
-0.016598511 5.7774892 2.1794951 0 24
-0.033233665 5.7824826 2.181406 0 24
-0.049849417 5.7818332 2.181206 0 24
-0.066316649 5.7685175 2.1762455 0 24
-0.083011799 5.7763128 2.1792674 0 24
-0.099757925 5.7843847 2.1824119 0 24
-0.11635537 5.7826791 2.1818855 0 24
-0.13304694 5.785409 2.1830509 0 24
-0.14911148 5.7632122 2.1748278 0 24
-0.15992643 5.5627728 2.099354 0 24
-0.1762033 5.5714149 2.102798 0 24
-0.19245224 5.5777216 2.1053784 0 24
-0.20822431 5.5702157 2.1027625 0 24
-0.22413276 5.5670843 2.1018147 0 24
-0.2407897 5.5816355 2.1075611 0 24
-0.25627825 5.5688896 2.103018 0 24
-0.27329615 5.5888343 2.1108377 0 24
-0.28899261 5.5809526 2.1081657 0 24
-0.30446312 5.5696802 2.1042297 0 24
-0.32133153 5.5837412 2.1098821 0 24
-0.33731794 5.5817771 2.1094975 0 24
-0.35318962 5.5780916 2.1084797 0 24
-0.36942315 5.5801048 2.1096334 0 24
-0.38548705 5.5794058 2.1097791 0 24
-0.4025349 5.5923438 2.1151004 0 24
-0.41796297 5.5825591 2.1118453 0 24
-0.43348351 5.5746017 2.1092978 0 24
-0.44970587 5.5758271 2.1102417 0 24
-0.46662077 5.5851679 2.1142757 0 24
-0.48144314 5.5695853 2.108892 0 24
-0.49875301 5.5827675 2.1144173 0 24
-0.5151388 5.5850124 2.1158197 0 24
-0.5310064 5.5815835 2.1150901 0 24
-0.54737359 5.5833635 2.1163521 0 24
-0.56399912 5.5875096 2.1185293 0 24
-0.5806275 5.5913606 2.1206136 0 24
-0.59598887 5.5830426 2.1180997 0 24
-0.61289662 5.5891762 2.1210864 0 24
-0.62864935 5.584641 2.1200423 0 24
-0.64433253 5.5796418 2.1188385 0 24
-0.66023254 5.5766282 2.1184063 0 24
-0.67507768 5.5649724 2.114707 0 24
-0.69533002 5.5973005 2.1277423 0 24
-0.71156281 5.5964389 2.1281834 0 24
-0.72582608 5.5803814 2.1228616 0 24
-0.74309987 5.587575 2.1264019 0 24
-0.75851339 5.5806804 2.1245992 0 24
-0.77814502 5.6043644 2.1344585 0 24
-0.79251295 5.5898504 2.1297896 0 24
-0.80875587 5.588789 2.1302621 0 24
-0.82332653 5.5763516 2.1264145 0 24
-0.84202474 5.5917172 2.1331878 0 24
-0.86056769 5.6053905 2.139339 0 24
-0.87179977 5.571732 2.1274407 0 24
-0.89034706 5.5851126 2.133518 0 24
-0.90694392 5.5859017 2.1348064 0 24
-0.92540902 5.5978708 2.1403885 0 24
-0.93985164 5.5854216 2.1366522 0 24
-0.95815587 5.595861 2.1416907 0 24
-0.97226441 5.5817652 2.1373565 0 24
-0.99008697 5.5890126 2.1412125 0 24
-1.0082804 5.5979872 2.1457522 0 24
-1.0234067 5.5898247 2.1437421 0 24
-1.0397174 5.5881939 2.1442537 0 24
-1.0564549 5.588778 2.1456344 0 24
-1.073287 5.5897431 2.1471803 0 24
-1.0908693 5.5944314 2.1501768 0 24
-1.1044997 5.5789227 2.1454275 0 24
-1.1252015 5.598968 2.1543708 0 24
-1.1367041 5.5732269 2.1457145 0 24
-1.1575094 5.5930872 2.1546328 0 24
-1.173628 5.5899615 2.1547194 0 24
-1.191499 5.5950589 2.1579952 0 24
-1.2080259 5.5936956 2.1587999 0 24
-1.2236869 5.5883193 2.1580734 0 24
-1.2390029 5.5814395 2.1567831 0 24
-1.2571684 5.5873127 2.16044 0 24
-1.2731926 5.5835443 2.1603889 0 24
-1.2908155 5.5866976 2.1630356 0 24
-1.3118895 5.6044173 2.1713471 0 24
-1.3248175 5.5872321 2.1661556 0 24
-1.3398663 5.579216 2.1645317 0 24
-1.3588594 5.587523 2.169261 0 24
-1.3794777 5.6021285 2.1764617 0 24
-1.3951697 5.596518 2.1758308 0 24
-1.4097319 5.5864697 2.1734905 0 24
-1.4301835 5.5996232 2.1801984 0 24
-1.4459573 5.5942702 2.1797235 0 24
-1.4622486 5.5909233 2.180048 0 24
-1.4817957 5.5998611 2.1851847 0 24
-1.4975132 5.5941892 2.1846421 0 24
-1.5156108 5.5973392 2.1875644 0 24
-1.5332959 5.5988131 2.1898537 0 24
-1.546755 5.5848966 2.1861405 0 24
-1.5649854 5.5882277 2.1891961 0 24
-1.5820942 5.5874257 2.1906545 0 24
-1.5993911 5.5871997 2.1923592 0 24
-1.6195465 5.5967579 2.1979272 0 24
-1.6387098 5.6026216 2.2020705 0 24
-1.6524495 5.5899148 2.1989341 0 24
-1.6706333 5.5922508 2.2017329 0 24
-1.6892389 5.5958362 2.2050469 0 24
-1.7046938 5.5889182 2.2042425 0 24
-1.7219018 5.5877299 2.2057166 0 24
-1.7391835 5.5867028 2.2072754 0 24
-1.7611282 5.6004243 2.2146876 0 24
-1.7737521 5.5844269 2.2103682 0 24
-1.7975398 5.6034455 2.2199318 0 24
-1.813581 5.5980792 2.2198617 0 24
-1.8331839 5.6036029 2.2241323 0 24
-1.8481733 5.5949521 2.2227981 0 24
-1.8678402 5.6003904 2.2270825 0 24
-1.8860826 5.6013927 2.2296276 0 24
-1.9005662 5.5912161 2.227742 0 24
-1.9202141 5.5961781 2.231909 0 24
-1.938051 5.5957174 2.2339377 0 24
-1.9547634 5.5919452 2.2346656 0 24
-1.9658674 5.5722423 2.2290406 0 24
-1.9890985 5.5868564 2.2371645 0 24
-2.0087552 5.5911555 2.2411888 0 24
-2.0290787 5.5971127 2.2459052 0 24
-2.0452669 5.5915551 2.2460248 0 24
-2.0671027 5.6012959 2.2523148 0 24
-2.0858355 5.6024265 2.2551708 0 24
-2.1005962 5.5928574 2.2537401 0 24
-2.1151433 5.5827856 2.2521219 0 24
-2.1349075 5.5864344 2.2560599 0 24
-2.1599329 5.6035643 2.2654757 0 24
-2.1759424 5.5971074 2.2653844 0 24
-2.1901755 5.586123 2.2634771 0 24
-2.2108574 5.591527 2.2682323 0 24
-2.2313986 5.5963817 2.272794 0 24
-2.246134 5.5866098 2.2714381 0 24
-2.2705667 5.6008124 2.2798567 0 24
-2.285574 5.5916171 2.2787783 0 24
-2.3039341 5.5906005 2.2810533 0 24
-2.3232763 5.5918565 2.284281 0 24
-2.3435836 5.5952883 2.2884252 0 24
-2.364058 5.5989542 2.2926941 0 24
-2.38064 5.5933084 2.2931747 0 24
-2.3997972 5.5936456 2.2961314 0 24
-2.4200401 5.5963798 2.3000996 0 24
-2.4469235 5.6141982 2.3103039 0 24
-2.4536374 5.5857134 2.301475 0 24
-2.4728727 5.5858455 2.3044484 0 24
-2.4929543 5.5877619 2.3081856 0 24
-2.5154872 5.5949922 2.3141494 0 24
-2.5375524 5.6009684 2.3196285 0 24
-2.5539687 5.5943704 2.3199265 0 24
-2.574358 5.5963979 2.3238261 0 24
-2.5940371 5.5967517 2.3270593 0 24
-2.6136432 5.5968318 2.3302066 0 24
-2.6346071 5.5996852 2.3345377 0 24
-2.6535773 5.5981784 2.3370798 0 24
-2.6655364 5.5818987 2.3334723 0 24
-2.6955831 5.6033449 2.3456669 0 24
-2.7064426 5.5847716 2.3411386 0 24
-2.7387116 5.6102123 2.3550935 0 24
-2.7517819 5.5961275 2.3524916 0 24
-2.771837 5.5962338 2.3558755 0 24
-2.7927933 5.5980306 2.3600016 0 24
-2.8051822 5.5826368 2.3569014 0 24
-2.8268039 5.5855908 2.3615689 1.157894e+27 24
-2.9552622 5.7979932 2.4549532 2.315788e+27 24
-2.976413 5.7982378 2.4586689 2.315788e+27 24
-3.0050547 5.8128481 2.4685166 2.315788e+27 24
-4.0661731 7.5436239 3.2328188 4.631576e+27 24
-3.8646684 7.1207104 3.0563271 4.631576e+27 24
-3.6741259 6.7234654 2.8903439 4.631576e+27 24
-2.939712 5.3429728 2.300508 4.631576e+27 24
-2.9462163 5.318541 2.2936254 4.631576e+27 24
-2.9433579 5.2775378 2.2795815 4.631576e+27 24
-2.949779 5.2534976 2.2728505 4.631576e+27 24
-2.9649501 5.2451448 2.2729144 4.631576e+27 24
-2.9891031 5.252573 2.2798469 4.631576e+27 24
-3.0018165 5.23982 2.2780471 4.631576e+27 24
-3.0064754 5.2131553 2.2702019 4.631576e+27 24
-3.0034084 5.1734204 2.2566483 4.631576e+27 24
-3.0134919 5.1565971 2.2530792 4.631576e+27 24
-3.029072 5.1492252 2.2536528 4.631576e+27 24
-3.0435295 5.1399398 2.2534082 4.631576e+27 24
-3.0559003 5.1271601 2.251647 4.631576e+27 24
-3.071964 5.1205883 2.2526293 4.631576e+27 24
-3.0889604 5.1155314 2.2543013 4.631576e+27 24
-3.0997949 5.100287 2.2515004 4.631576e+27 24
-3.1165237 5.0947599 2.2530055 4.631576e+27 24
-3.126914 5.0788932 2.2499542 4.631576e+27 24
-3.1447294 5.0750976 2.2522676 4.631576e+27 24
-3.1640615 5.0736675 2.2556596 4.631576e+27 24
-3.1698139 5.0505028 2.2494023 4.631576e+27 24
-3.1883278 5.0477204 2.2522352 4.631576e+27 24
-3.1889389 5.0166931 2.2424717 4.631576e+27 24
-3.191916 4.9896402 2.2344708 4.631576e+27 24
-3.1932802 4.9603071 2.225436 4.631576e+27 24
-3.1970251 4.9349017 2.2181513 4.631576e+27 24
-3.1917596 4.8958783 2.2047255 4.631576e+27 24
-3.1907425 4.8637033 2.1943572 4.631576e+27 24
-3.1926019 4.8361721 2.1860671 4.631576e+27 24
-3.1905298 4.8029513 2.1751869 4.631576e+27 24
-3.1798773 4.7571912 2.1585932 4.631576e+27 24
-3.1925609 4.7465796 2.157933 4.631576e+27 24
-3.1879678 4.7104578 2.145668 4.631576e+27 24
-3.1941512 4.6904931 2.1407468 4.631576e+27 24
-3.1899092 4.6554456 2.128927 4.631576e+27 24
-3.1989782 4.6400223 2.12607 4.631576e+27 24
-3.1934044 4.6035662 2.1135628 4.631576e+27 24
-3.1913865 4.5725379 2.1035199 4.631576e+27 24
-3.1903906 4.5432305 2.0942476 4.631576e+27 24
-3.1927676 4.5189424 2.0872734 4.631576e+27 24
-3.1978884 4.4986968 2.0821588 4.631576e+27 24
-3.206279 4.4831576 2.0792234 4.631576e+27 24
-3.2176969 4.4719014 2.078284 4.631576e+27 24
-3.2512569 4.4912567 2.0916135 4.631576e+27 24
-3.2730472 4.4941058 2.0973129 4.631576e+27 24
-3.2785585 4.4745903 2.0925946 4.631576e+27 24
-3.3122439 4.4934173 2.1058428 4.631576e+27 24
-3.3327503 4.494133 2.1106589 4.631576e+27 24
-3.3511941 4.4919615 2.1141541 4.631576e+27 24
-3.3654485 4.4841185 2.1150069 4.631576e+27 24
-3.3919442 4.4924669 2.1235342 4.631576e+27 24
-3.4044409 4.4821701 2.1232836 4.631576e+27 24
-3.4265463 4.4844542 2.1290226 4.631576e+27 24
-3.4424791 4.4785647 2.1309152 4.631576e+27 24
-3.4781489 4.4981527 2.1449831 4.631576e+27 24
-3.4853401 4.4807787 2.1414664 4.631576e+27 24
-3.5140481 4.4909902 2.151165 4.631576e+27 24
-3.5340354 4.4898834 2.1554916 4.631576e+27 24
-3.5582428 4.494 2.1623688 4.631576e+27 24
-3.5784838 4.4929686 2.1668127 4.631576e+27 24
-3.5961783 4.4886494 2.1697056 4.631576e+27 24
-3.6111813 4.4809203 2.1709778 4.631576e+27 24
-3.6403303 4.4906106 2.180733 4.631576e+27 24
-3.6552174 4.4825749 2.1819239 4.631576e+27 24
-3.6789036 4.4852386 2.1883583 4.631576e+27 24
-3.6993592 4.4838319 2.1928508 4.631576e+27 24
-3.7246649 4.4881625 2.2001953 4.631576e+27 24
-3.7480965 4.4900727 2.206404 4.631576e+27 24
-3.7776749 4.4991565 2.2161942 4.631576e+27 24
-3.7896552 4.4871716 2.215647 4.631576e+27 24
-3.815083 4.4910293 2.2229571 4.631576e+27 24
-3.8365433 4.4900723 2.2279327 4.631576e+27 24
-3.8661408 4.4984665 2.2376025 4.631576e+27 24
-3.8831463 4.4920688 2.2399626 4.631576e+27 24
-3.9030797 4.4889836 2.244009 4.631576e+27 24
-3.93028 4.4941139 2.2522113 4.631576e+27 24
-3.9451129 4.4849949 2.253315 4.631576e+27 24
-3.9621823 4.4783778 2.2557027 4.631576e+27 24
-3.9808159 4.473464 2.2589817 4.631576e+27 24
-3.9855118 4.4529023 2.254374 4.631576e+27 24
-3.990411 4.4326715 2.2499292 4.631576e+27 24
-4.0098567 4.428607 2.2537069 4.631576e+27 24
-4.0274897 4.4224668 2.2564638 4.631576e+27 24
-4.0195575 4.3883524 2.2449434 4.631576e+27 24
-4.046804 4.392683 2.2530997 4.631576e+27 24
-4.0589905 4.3805771 2.2528653 4.631576e+27 24
-4.0847125 4.3830004 2.2601402 4.631576e+27 24
-4.0841508 4.3572202 2.2528903 4.631576e+27 24
-4.0960207 4.3447871 2.2525399 4.631576e+27 24
-4.1117606 4.3364439 2.2543323 4.631576e+27 24
-4.1290121 4.3296452 2.2569582 4.631576e+27 24
-4.1531339 4.3299513 2.2633312 4.631576e+27 24
-4.1790047 4.3319306 2.2706351 4.631576e+27 24
-4.1998296 4.3285494 2.2751808 4.631576e+27 24
-4.2137551 4.3179989 2.2759919 4.631576e+27 24
-4.2219057 4.3015461 2.2737067 4.631576e+27 24
-4.2368765 4.2920518 2.275116 4.631576e+27 24
-4.2423153 4.2729263 2.2714319 4.631576e+27 24
-4.2567401 4.2628789 2.2725856 4.631576e+27 24
-4.2996378 4.281157 2.288909 4.631576e+27 24
-4.3190112 4.2757964 2.2926705 4.631576e+27 24
-4.332643 4.2647033 2.2933903 4.631576e+27 24
-4.5198283 4.4234467 2.3857327 4.631576e+27 24
-4.5725284 4.4493642 2.4067893 4.631576e+27 24
-4.6162686 4.4661665 2.4230454 4.631576e+27 24
-4.6691599 4.4914274 2.4440215 4.631576e+27 24
-4.7203045 4.5145755 2.4639902 4.631576e+27 24
-4.7676001 4.5336432 2.4818659 4.631576e+27 24
-4.8346686 4.5710306 2.5099299 4.631576e+27 24
-4.8846831 4.5917993 2.5290327 4.631576e+27 24
-4.9379039 4.6151662 2.5497091 4.631576e+27 24
-5.0026679 4.6488295 2.5762401 4.631576e+27 24
-5.0580468 4.6732707 2.5978305 4.631576e+27 24
-5.1224761 4.7055793 2.6239643 4.631576e+27 24
-7.5212526 6.8693733 3.8425965 4.631576e+27 24
-7.5986342 6.9000936 3.8719821 4.631576e+27 24
-7.6748543 6.9291615 3.9006562 4.631576e+27 24
-7.7440476 6.9513345 3.925652 3.4736819e+27 24
-10.685706 1.0631392 4.050952 4.631576e+27 24
-10.678835 1.0314666 4.0472064 4.631576e+27 24
-10.691579 1.0016887 4.0509281 4.631576e+27 24
-10.684165 0.97002351 4.0470462 4.631576e+27 24
-10.67798 0.9385255 4.0436649 4.631576e+27 24
-10.690768 0.90869147 4.0475016 4.631576e+27 24
-10.680987 0.87694567 4.0428281 4.631576e+27 24
-10.681253 0.84606683 4.0419912 4.631576e+27 24
-10.690806 0.81590933 4.0447021 4.631576e+27 24
-10.688653 0.78485048 4.0430174 4.631576e+27 24
-10.685976 0.75378025 4.0411687 3.4736819e+27 24
-10.837114 -4.0170836 4.0553279 6.8663625e-44 23
-10.761273 -4.0241899 4.0312595 6.8663625e-44 23
-10.693674 -4.0339832 4.010263 6.8663625e-44 23
-10.692342 -4.068625 4.0141325 6.8663625e-44 23
-10.60073 -4.0686846 3.9841132 6.8663625e-44 23
-10.497612 -4.0637631 3.9497316 6.8663625e-44 23
-10.434939 -4.074028 3.9305406 6.8663625e-44 23
-10.327949 -4.0665054 3.8946269 6.8663625e-44 23
-10.268698 -4.0773053 3.876687 6.8663625e-44 23
-10.264538 -4.1098475 3.8795602 6.8663625e-44 23
-10.246913 -4.1370044 3.8773768 6.8663625e-44 23
-10.240855 -4.1688313 3.8796027 6.8663625e-44 23
-10.230021 -4.1987376 3.8800542 6.8663625e-44 23
-10.187009 -4.2153378 3.8683202 6.8663625e-44 23
-10.084337 -4.2068415 3.8339083 6.8663625e-44 23
-10.017745 -4.2129068 3.8131788 6.8663625e-44 23
-9.9488716 -4.2176366 3.7915616 6.8663625e-44 23
-9.8730946 -4.2190313 3.7672884 6.8663625e-44 23
-9.7951012 -4.2190385 3.7421401 6.8663625e-44 23
-9.6961164 -4.2094841 3.708931 6.8663625e-44 23
-9.6420984 -4.2190113 3.6928916 6.8663625e-44 23
-9.5674191 -4.2191405 3.6689191 6.8663625e-44 23
-9.4816332 -4.2139039 3.6406515 6.8663625e-44 23
-9.4159508 -4.217164 3.6200707 6.8663625e-44 23
-9.3639174 -4.2262144 3.6047211 6.8663625e-44 23
-9.2700977 -4.2159853 3.5732548 6.8663625e-44 23
-9.2013302 -4.2166696 3.5514045 6.8663625e-44 23
-9.1386948 -4.2197914 3.5318961 6.8663625e-44 23
-9.0712891 -4.2203417 3.5105193 6.8663625e-44 23
-9.0011091 -4.2192049 3.4880388 6.8663625e-44 23
-8.9490261 -4.2262073 3.4725487 6.8663625e-44 23
-8.8915482 -4.2303619 3.4549491 6.8663625e-44 23
-8.7943974 -4.2151828 3.4218936 6.8663625e-44 23
-8.7411089 -4.2205801 3.405865 6.8663625e-44 23
-8.6897163 -4.2266078 3.3905599 6.8663625e-44 23
-8.6068983 -4.2169604 3.3629615 6.8663625e-44 23
-8.4755669 -4.1828661 3.3163304 6.8663625e-44 23
-8.4160957 -4.183641 3.2977521 6.8663625e-44 23
-8.4120893 -4.2118459 3.3009121 6.8663625e-44 23
-8.3623457 -4.2170448 3.2861357 6.8663625e-44 23
-8.3143492 -4.2228589 3.2720306 6.8663625e-44 23
-8.2475262 -4.2187843 3.2504919 6.8663625e-44 23
-8.1976719 -4.2230539 3.2356138 6.8663625e-44 23
-8.1454897 -4.225842 3.2197983 6.8663625e-44 23
-8.0039215 -4.1816382 3.1685765 6.8663625e-44 23
-7.9759684 -4.1962609 3.1622722 6.8663625e-44 23
-7.9654112 -4.2199831 3.1628826 6.8663625e-44 23
-7.9112372 -4.220448 3.1461749 6.8663625e-44 23
-7.8696733 -4.2273765 3.134465 6.8663625e-44 23
-7.8023186 -4.2201376 3.1124561 6.8663625e-44 23
-7.737175 -4.2136922 3.0912881 6.8663625e-44 23
-7.6919117 -4.2177529 3.0780346 6.8663625e-44 23
-7.6566367 -4.2270799 3.068768 6.8663625e-44 23
-7.5282822 -4.1844964 3.0221319 6.8663625e-44 23
-7.4824543 -4.1872196 3.008554 6.8663625e-44 23
-7.4299722 -4.1859393 2.9922771 6.8663625e-44 23
-7.3853793 -4.188827 2.9791546 6.8663625e-44 23
-7.335794 -4.1886172 2.9639969 6.8663625e-44 23
-7.2839551 -4.1868258 2.947902 6.8663625e-44 23
-7.2245693 -4.1803627 2.9287186 6.8663625e-44 23
-7.196177 -4.1915889 2.9220805 6.8663625e-44 23
-7.1740851 -4.2063837 2.9180074 6.8663625e-44 23
-7.1675544 -4.2302856 2.9202845 6.8663625e-44 23
-7.1280761 -4.2346573 2.909147 6.8663625e-44 23
-7.0863891 -4.2374959 2.8970923 6.8663625e-44 23
-7.0273738 -4.2296743 2.8779237 6.8663625e-44 23
-6.9908032 -4.2350836 2.8679204 6.8663625e-44 23
-6.9484773 -4.2367916 2.8555405 6.8663625e-44 23
-6.9003396 -4.234695 2.8407481 6.8663625e-44 23
-6.8916888 -4.2567034 2.8422122 6.8663625e-44 23
-6.8856678 -4.280375 2.8447909 6.8663625e-44 23
-6.8866143 -4.3084559 2.8502867 6.8663625e-44 23
-6.8827367 -4.3336053 2.8538253 6.8663625e-44 23
-6.8815007 -4.360498 2.8584979 6.8663625e-44 23
-6.8832364 -4.3893766 2.8644476 6.8663625e-44 23
-6.8757367 -4.4124451 2.8665929 6.8663625e-44 23
-6.8826137 -4.4448395 2.8747745 6.8663625e-44 23
-6.893116 -4.4797502 2.8845274 6.8663625e-44 23
-6.8898978 -4.5058789 2.8885884 6.8663625e-44 23
-6.8890328 -4.5336366 2.893677 6.8663625e-44 23
-6.8804512 -4.5563841 2.8955612 6.8663625e-44 23
-6.8944664 -4.5942264 2.9070046 6.8663625e-44 23
-6.882154 -4.6146421 2.9073939 6.8663625e-44 23
-6.9074521 -4.6604409 2.923728 6.8663625e-44 23
-6.889266 -4.6770425 2.9217083 6.8663625e-44 23
-6.9002895 -4.7135572 2.932117 6.8663625e-44 23
-6.8988838 -4.7417364 2.9372988 6.8663625e-44 23
-6.8997617 -4.7715983 2.9434998 6.8663625e-44 23
-6.8892484 -4.7936583 2.9448807 6.8663625e-44 23
-6.8901052 -4.8237057 2.9511614 6.8663625e-44 23
-6.8928308 -4.855196 2.9582939 6.8663625e-44 23
-6.9008751 -4.8905988 2.967767 6.8663625e-44 23
-6.892848 -4.9147334 2.9703777 6.8663625e-44 23
-6.8897963 -4.9424901 2.9751725 6.8663625e-44 23
-6.8936253 -4.9753094 2.9829888 6.8663625e-44 23
-6.8901896 -5.0030127 2.9877124 6.8663625e-44 23
-6.8886199 -5.0321755 2.9932911 6.8663625e-44 23
-6.8486333 -5.0332179 2.9821899 6.8663625e-44 23
-6.783227 -5.0152407 2.9599738 6.8663625e-44 23
-6.7247062 -5.0019312 2.9406989 6.8663625e-44 23
-6.6833172 -5.0010471 2.9288735 6.8663625e-44 23
-6.6011839 -4.9692492 2.8991268 6.8663625e-44 23
-6.5431347 -4.9550791 2.8798759 6.8663625e-44 23
-6.4947443 -4.9478712 2.864825 6.8663625e-44 23
-6.4473243 -4.9410963 2.8501611 6.8663625e-44 23
-6.3829179 -4.9209228 2.8279297 6.8663625e-44 23
-6.3217783 -4.902822 2.8070741 6.8663625e-44 23
-6.2829552 -4.9016986 2.7960796 6.8663625e-44 23
-6.2262182 -4.8862877 2.7770689 6.8663625e-44 23
-6.1846056 -4.8824205 2.7647567 6.8663625e-44 23
-6.1356111 -4.8724332 2.7491035 6.8663625e-44 23
-6.0888171 -4.8638759 2.7343895 6.8663625e-44 23
-6.0393167 -4.8528352 2.7184126 6.8663625e-44 23
-5.9858665 -4.8382654 2.7006021 6.8663625e-44 23
-5.9462223 -4.8345447 2.6889741 6.8663625e-44 23
-5.8921776 -4.8188004 2.6707869 6.8663625e-44 23
-5.8472753 -4.8101926 2.6566899 6.8663625e-44 23
-5.8031425 -4.8019209 2.6428981 6.8663625e-44 23
-5.7523508 -4.7878137 2.6260228 6.8663625e-44 23
-5.7016788 -4.7734461 2.609143 6.8663625e-44 23
-5.6629939 -4.7688117 2.5977023 6.8663625e-44 23
-5.6060438 -4.7484608 2.5778284 6.8663625e-44 23
-5.5656023 -4.7417474 2.5654886 6.8663625e-44 23
-5.528522 -4.737648 2.5546629 6.8663625e-44 23
-5.4740281 -4.7183051 2.535738 6.8663625e-44 23
-5.4436092 -4.7194247 2.5279202 6.8663625e-44 23
-5.401783 -4.7104268 2.5147738 6.8663625e-44 23
-5.3630695 -4.7038732 2.5030351 6.8663625e-44 23
-5.3207812 -4.6939096 2.4895849 6.8663625e-44 23
-5.2794256 -4.6844792 2.4765246 6.8663625e-44 23
-5.2389503 -4.6755481 2.4638319 6.8663625e-44 23
-5.1972847 -4.6652689 2.4505332 6.8663625e-44 23
-5.1622181 -4.6606541 2.4403052 6.8663625e-44 23
-5.1288381 -4.6573453 2.4308438 6.8663625e-44 23
-5.0919895 -4.6506581 2.4197047 6.8663625e-44 23
-5.0526485 -4.6414347 2.4073396 6.8663625e-44 23
-5.0138855 -4.6324687 2.3952048 6.8663625e-44 23
-4.9796572 -4.6274462 2.3851976 6.8663625e-44 23
-4.9307284 -4.6084595 2.3680964 6.8663625e-44 23
-4.8954191 -4.6018915 2.3574812 6.8663625e-44 23
-4.863925 -4.5986919 2.3486702 6.8663625e-44 23
-4.8095937 -4.573576 2.328773 6.8663625e-44 23
-4.7930279 -4.5841293 2.3271222 6.8663625e-44 23
-4.7608314 -4.5796099 2.3178716 6.8663625e-44 23
-4.7198968 -4.5664253 2.3043227 6.8663625e-44 23
-4.6980934 -4.571547 2.3000834 6.8663625e-44 23
-4.661797 -4.5623879 2.2887242 6.8663625e-44 23
-4.6280718 -4.5554991 2.2785857 6.8663625e-44 23
-4.5977483 -4.551744 2.2700882 6.8663625e-44 23
-4.5545893 -4.5350127 2.2552056 6.8663625e-44 23
-4.5250521 -4.5315776 2.2470202 6.8663625e-44 23
-4.4867206 -4.5190954 2.2344267 6.8663625e-44 23
-4.4560056 -4.5140347 2.2255826 6.8663625e-44 23
-4.4306345 -4.5142126 2.2193823 6.8663625e-44 23
-4.3987288 -4.5075488 2.2098811 6.8663625e-44 23
-4.3590426 -4.4926424 2.1964214 6.8663625e-44 23
-4.3241806 -4.482419 2.1853378 6.8663625e-44 23
-4.3104472 -4.4939623 2.1849163 6.8663625e-44 23
-4.279489 -4.4874339 2.1757529 6.8663625e-44 23
-4.2400789 -4.4717741 2.1622422 6.8663625e-44 23
-4.2147913 -4.4707713 2.1558907 6.8663625e-44 23
-4.1853194 -4.4651532 2.1473715 6.8663625e-44 23
-4.1518688 -4.4550605 2.13677 6.8663625e-44 23
-4.1232133 -4.4498882 2.1285963 6.8663625e-44 23
-4.099637 -4.4500318 2.1230195 6.8663625e-44 23
-4.0673265 -4.4405046 2.1128881 6.8663625e-44 23
-4.0312524 -4.4265985 2.1007493 6.8663625e-44 23
-4.0100813 -4.4288554 2.0963416 6.8663625e-44 23
-3.9911637 -4.4335079 2.0931051 6.8663625e-44 23
-3.9528177 -4.4163742 2.0796437 6.8663625e-44 23
-3.9152095 -4.3997383 2.0665021 6.8663625e-44 23
-3.8922155 -4.3992958 2.0610313 6.8663625e-44 23
-3.8698413 -4.3994226 2.055871 6.8663625e-44 23
-3.8446372 -4.3961844 2.0491855 6.8663625e-44 23
-3.8198693 -4.3932824 2.0427065 6.8663625e-44 23
-3.7902875 -4.3846488 2.0336185 6.8663625e-44 23
-3.7612522 -4.3764229 2.0247808 6.8663625e-44 23
-3.7397289 -4.3767662 2.019958 6.8663625e-44 23
-3.7124047 -4.3701587 2.0119755 6.8663625e-44 23
-3.6914527 -4.370894 2.007421 6.8663625e-44 23
-3.6605556 -4.3596687 1.9974252 6.8663625e-44 23
-3.6279087 -4.3460922 1.9864192 6.8663625e-44 23
-3.6118937 -4.3522744 1.9844916 6.8663625e-44 23
-3.5940554 -4.3561978 1.9815619 6.8663625e-44 23
-3.5622647 -4.3430347 1.9709088 6.8663625e-44 23
-3.5407655 -4.342217 1.9659109 6.8663625e-44 23
-3.5162909 -4.3375988 1.9592361 6.8663625e-44 23
-3.4844337 -4.3236461 1.948402 6.8663625e-44 23
-3.4658725 -4.3260055 1.9449681 6.8663625e-44 23
-3.4401767 -4.3193169 1.9375072 6.8663625e-44 23
-3.4176421 -4.3164239 1.9317951 6.8663625e-44 23
-3.3949475 -4.3131766 1.9259667 6.8663625e-44 23
-3.3745809 -4.3127499 1.921437 6.8663625e-44 23
-3.34196 -4.2964482 1.9098867 6.8663625e-44 23
-3.3278363 -4.3037591 1.9088769 6.8663625e-44 23
-3.2970388 -4.289351 1.8982751 6.8663625e-44 23
-3.2795591 -4.2920866 1.8953063 6.8663625e-44 23
-3.2672093 -4.3014956 1.8953065 6.8663625e-44 23
-3.2320974 -4.2807579 1.8820679 6.8663625e-44 23
-3.1988835 -4.2621875 1.8698533 6.8663625e-44 23
-3.1894257 -4.275126 1.8714998 6.8663625e-44 23
-3.1703312 -4.275115 1.8674983 6.8663625e-44 23
-3.1482911 -4.270997 1.8617389 6.8663625e-44 23
-3.1210685 -4.2596474 1.8528733 6.8663625e-44 23
-3.1008241 -4.2576323 1.8481125 6.8663625e-44 23
-3.0818055 -4.2571778 1.8440624 6.8663625e-44 23
-3.0550659 -4.2458797 1.8353572 6.8663625e-44 23
-3.039515 -4.2499804 1.8333459 6.8663625e-44 23
-3.0120025 -4.2371984 1.8240898 6.8663625e-44 23
-2.9909441 -4.2332878 1.8186979 6.8663625e-44 23
-2.9824505 -4.2471166 1.8209487 6.8663625e-44 23
-2.9504898 -4.227387 1.808846 6.8663625e-44 23
-2.9387875 -4.2365141 1.8091297 6.8663625e-44 23
-2.9151492 -4.2283368 1.802052 6.8663625e-44 23
-2.8902407 -4.2181005 1.7941417 6.8663625e-44 23
-2.877281 -4.2251811 1.7936282 6.8663625e-44 23
-2.8502781 -4.2114968 1.7843339 6.8663625e-44 23
-2.8452842 -4.2302613 1.7888119 6.8663625e-44 23
-2.8352022 -4.2415471 1.7901309 6.8663625e-44 23
-2.8342853 -4.2666688 1.7972876 6.8663625e-44 23
-2.8294573 -4.2860785 1.8020307 6.8663625e-44 23
-2.8337426 -4.3195224 1.8126596 6.8663625e-44 23
-2.8359332 -4.3500719 1.8220515 6.8663625e-44 23
-2.8355329 -4.3769054 1.8298695 8.5896911e+18 23
-2.9855008 -4.6375513 1.9352432 1.7179382e+19 23
-2.9606452 -4.6281147 1.9277463 1.7179382e+19 23
-2.9371409 -4.6205759 1.9210818 1.7179382e+19 23
-2.9264035 -4.6330447 1.9227608 1.7179382e+19 23
-2.9062018 -4.6304865 1.9182245 1.7179382e+19 23
-2.8903399 -4.6347461 1.9165397 1.7179382e+19 23
-2.871145 -4.6335754 1.9126351 1.7179382e+19 23
-2.8536112 -4.6349812 1.9098217 1.7179382e+19 23
-2.8431895 -4.6479249 1.9117799 1.7179382e+19 23
-2.8144341 -4.630765 1.9013865 1.7179382e+19 23
-2.796355 -4.6309566 1.8981572 1.7179382e+19 23
-2.778928 -4.632133 1.8953577 1.7179382e+19 23
-2.7601476 -4.630949 1.8916192 1.7179382e+19 23
-2.7377098 -4.6234684 1.8853415 1.7179382e+19 23
-2.7302532 -4.6412525 1.8893857 1.7179382e+19 23
-2.7120433 -4.6407676 1.8860071 1.7179382e+19 23
-2.6934857 -4.6395736 1.8823677 1.7179382e+19 23
-2.6729968 -4.6349115 1.8773514 1.7179382e+19 23
-2.6527898 -4.6305766 1.8724993 1.7179382e+19 23
-2.6370256 -4.6338878 1.8707657 1.7179382e+19 23
-2.6219673 -4.638391 1.8695333 1.7179382e+19 23
-2.5995648 -4.6297731 1.8630406 1.7179382e+19 23
-2.5822296 -4.630023 1.8601468 1.7179382e+19 23
-2.5691471 -4.6378517 1.8603177 1.7179382e+19 23
-2.5476413 -4.6303778 1.8543748 1.7179382e+19 23
-2.530092 -4.629941 1.8512799 1.7179382e+19 23
-2.5182056 -4.639832 1.8523329 1.7179382e+19 23
-2.4957132 -4.6300836 1.8455698 1.7179382e+19 23
-2.484226 -4.6406589 1.8469312 1.7179382e+19 23
-2.4706585 -4.6473689 1.8467678 1.7179382e+19 23
-2.4475257 -4.6359549 1.839429 1.7179382e+19 23
-2.4133725 -4.6032619 1.8236976 1.7179382e+19 23
-2.3886256 -4.5880795 1.814955 1.7179382e+19 23
-2.370719 -4.5858164 1.8113568 1.7179382e+19 23
-2.354419 -4.5865545 1.8089679 1.7179382e+19 23
-2.3447869 -4.6002884 1.8117191 1.7179382e+19 23
-2.3196719 -4.583529 1.8024855 1.7179382e+19 23
-2.3090072 -4.595191 1.8044542 1.7179382e+19 23
-2.2912991 -4.5928078 1.8009248 1.7179382e+19 23
-2.2718191 -4.5867167 1.7959684 1.7179382e+19 23
-2.2606087 -4.597259 1.7975447 1.7179382e+19 23
-2.2403436 -4.5893121 1.7919123 1.7179382e+19 23
-2.2235734 -4.588366 1.78904 1.7179382e+19 23
-2.2070429 -4.58781 1.7863423 1.7179382e+19 23
-2.1961944 -4.59905 1.7882535 1.7179382e+19 23
-2.1740472 -4.5865269 1.7809471 1.7179382e+19 23
-2.1582558 -4.5872316 1.7788047 1.7179382e+19 23
-2.1414516 -4.5856848 1.7758107 1.7179382e+19 23
-2.1270792 -4.5892692 1.7748238 1.7179382e+19 23
-2.1073852 -4.5812459 1.769371 1.7179382e+19 23
-2.0870111 -4.5715175 1.7632897 1.7179382e+19 23
-2.0798709 -4.5907588 1.7683982 1.7179382e+19 23
-2.0607295 -4.5835114 1.7633175 1.7179382e+19 23
-2.0478258 -4.5900416 1.7635579 1.7179382e+19 23
-2.03599 -4.5989933 1.7647417 1.7179382e+19 23
-2.0178368 -4.5936122 1.7604439 1.7179382e+19 23
-2.0017343 -4.5927601 1.7579052 1.7179382e+19 23
-1.988505 -4.5984483 1.7578874 1.7179382e+19 23
-1.9669626 -4.5847588 1.7504858 1.7179382e+19 23
-1.9587719 -4.6021299 1.7549614 1.7179382e+19 23
-1.9420112 -4.5993934 1.7517818 1.7179382e+19 23
-1.9258056 -4.5978465 1.7490773 1.7179382e+19 23
-1.9074574 -4.5910282 1.7443907 1.7179382e+19 23
-1.8938349 -4.5954762 1.7440052 1.7179382e+19 23
-1.879264 -4.5975866 1.7427491 1.7179382e+19 23
-1.8579328 -4.5829678 1.7351762 1.7179382e+19 23
-1.8492279 -4.5994205 1.7393858 1.7179382e+19 23
-1.8316923 -4.5939126 1.7353047 1.7179382e+19 23
-1.8200382 -4.6030974 1.736791 1.7179382e+19 23
-1.8060106 -4.6062961 1.7360321 1.7179382e+19 23
-1.7867515 -4.596004 1.7302104 1.7179382e+19 23
-1.7763331 -4.6083827 1.7329413 1.7179382e+19 23
-1.7538624 -4.5893493 1.7238812 1.7179382e+19 23
-1.7396691 -4.5917454 1.7228959 1.7179382e+19 23
-1.7256507 -4.5945611 1.7220843 1.7179382e+19 23
-1.7067702 -4.5842805 1.716385 1.7179382e+19 23
-1.6896975 -4.5786285 1.7124436 1.7179382e+19 23
-1.6778549 -4.5870876 1.7137965 1.7179382e+19 23
-1.6624188 -4.5857 1.7114857 1.7179382e+19 23
-1.6505834 -4.5942221 1.7128887 1.7179382e+19 23
-1.6353838 -4.5933647 1.7108095 1.7179382e+19 23
-1.622582 -4.5992012 1.7112391 1.7179382e+19 23
-1.607975 -4.599896 1.7097709 1.7179382e+19 23
-1.591976 -4.596498 1.7068 1.7179382e+19 23
-1.5778174 -4.5983143 1.7057834 1.7179382e+19 23
-1.5621622 -4.5956759 1.703132 1.7179382e+19 23
-1.5478194 -4.5967999 1.7018926 1.7179382e+19 23
-1.5328914 -4.5961051 1.6999973 1.7179382e+19 23
-1.5150828 -4.5865917 1.6948607 1.7179382e+19 23
-1.4982373 -4.5797515 1.6907347 1.7179382e+19 23
-1.4871812 -4.5905628 1.6931411 1.7179382e+19 23
-1.4737701 -4.5941629 1.6928995 1.7179382e+19 23
-1.4590074 -4.5934944 1.6911008 1.7179382e+19 23
-1.4446055 -4.5938754 1.6897056 1.7179382e+19 23
-1.4298745 -4.593123 1.6879101 1.7179382e+19 23
-1.4112772 -4.5797243 1.6814888 1.7179382e+19 23
-1.4021429 -4.5969906 1.6863414 1.7179382e+19 23
-1.389344 -4.6023932 1.6868514 1.7179382e+19 23
-1.3690661 -4.5827899 1.6782172 1.7179382e+19 23
-1.3735409 -4.6464214 1.7000664 1.7179382e+19 23
-1.3604236 -4.6511822 1.7003707 1.7179382e+19 23
-1.3424368 -4.6391339 1.6945484 1.7179382e+19 23
-1.3286411 -4.6413803 1.693967 1.7179382e+19 23
-1.3118024 -4.6328454 1.6894689 1.7179382e+19 23
-1.2965431 -4.6296778 1.6869478 1.7179382e+19 23
-1.2859184 -4.6430893 1.6904809 1.7179382e+19 23
-1.2723894 -4.6461158 1.6902443 1.7179382e+19 23
-1.2571919 -4.6429658 1.6877767 1.7179382e+19 23
-1.2415832 -4.638124 1.6847124 1.7179382e+19 23
-1.233242 -4.6605511 1.6915641 1.7179382e+19 23
-1.217541 -4.6552811 1.6883742 1.7179382e+19 23
-1.1996598 -4.6413684 1.6820709 1.7179382e+19 23
-1.1885469 -4.6535387 1.6852365 1.7179382e+19 23
-1.1708803 -4.6399512 1.6790901 1.7179382e+19 23
-1.1590362 -4.6493034 1.6812619 1.7179382e+19 23
-1.1441352 -4.6463909 1.6790127 1.7179382e+19 23
-1.1293681 -4.6438727 1.6769228 1.7179382e+19 23
-1.1161964 -4.6478524 1.6771944 1.7179382e+19 23
-1.1024358 -4.6493683 1.676591 1.7179382e+19 23
-1.0893245 -4.6536145 1.6769862 1.7179382e+19 23
-1.073712 -4.6470656 1.6735072 1.7179382e+19 23
-1.0597817 -4.6476374 1.6726092 1.7179382e+19 23
-1.0494803 -4.6642714 1.677503 1.7179382e+19 23
-1.0309854 -4.6443653 1.6692711 1.7179382e+19 23
-1.0186219 -4.6518312 1.6708952 1.7179382e+19 23
-1.0052661 -4.6548276 1.6709268 1.7179382e+19 23
-0.98974973 -4.6476817 1.6673336 1.7179382e+19 23
-0.9756425 -4.6469617 1.6660625 1.7179382e+19 23
-0.95845562 -4.6312585 1.6594379 1.7179382e+19 23
-0.94760656 -4.6460872 1.6637683 1.7179382e+19 23
-0.93556947 -4.655365 1.6661208 1.7179382e+19 23
-0.91997761 -4.6468859 1.662133 1.7179382e+19 23
-0.9055087 -4.6438251 1.6601005 1.7179382e+19 23
-0.89280075 -4.6497598 1.6612978 1.7179382e+19 23
-0.87795109 -4.6444707 1.6584996 1.7179382e+19 23
-0.86580718 -4.6534743 1.6608192 1.7179382e+19 23
-0.85017699 -4.6436472 1.6564329 1.7179382e+19 23
-0.83521849 -4.637145 1.6532502 1.7179382e+19 23
-0.82275057 -4.6444035 1.6549882 1.7179382e+19 23
-0.80907553 -4.6448989 1.6543292 1.7179382e+19 23
-0.79472369 -4.6413774 1.6522547 1.7179382e+19 23
-0.78239763 -4.6496916 1.6544069 1.7179382e+19 23
-0.77010441 -4.658421 1.6567186 1.7179382e+19 23
-0.75335753 -4.6399574 1.6493752 1.7179382e+19 23
-0.74228179 -4.6563048 1.6544211 1.7179382e+19 23
-0.72636479 -4.6422467 1.6486776 1.7179382e+19 23
-0.71512514 -4.6580362 1.6535484 1.7179382e+19 23
-0.69933796 -4.6441627 1.647903 1.7179382e+19 23
-0.68675959 -4.6513906 1.6497604 1.7179382e+19 23
-0.67192179 -4.6432176 1.6461698 1.7179382e+19 23
-0.66049719 -4.6587005 1.650979 1.7179382e+19 23
-0.63868243 -4.5999255 1.6294926 1.7179382e+19 23
-0.62605774 -4.6061521 1.6310544 1.7179382e+19 23
-0.61161536 -4.598906 1.6278592 1.7179382e+19 23
-0.59903544 -4.6055746 1.6296034 1.7179382e+19 23
-0.58462369 -4.598063 1.6263443 1.7179382e+19 23
-0.5725466 -4.6089125 1.629593 1.7179382e+19 23
-0.55827814 -4.6021404 1.6266246 1.7179382e+19 23
-0.54453528 -4.5993958 1.6250944 1.7179382e+19 23
-0.53111899 -4.5992613 1.6245008 1.7179382e+19 23
-0.5174945 -4.5971909 1.6232375 1.7179382e+19 23
-0.50441843 -4.5999331 1.6236871 1.7179382e+19 23
-0.4918029 -4.60706 1.625697 1.7179382e+19 23
-0.47780082 -4.6011543 1.6231217 1.7179382e+19 23
-0.46507233 -4.6074471 1.6248634 1.7179382e+19 23
-0.45157918 -4.6062336 1.623971 1.7179382e+19 23
-0.43746302 -4.5983181 1.6207304 1.7179382e+19 23
-0.42388213 -4.5956292 1.6193465 1.7179382e+19 23
-0.41169861 -4.6083279 1.6233975 1.7179382e+19 23
-0.39815977 -4.6061201 1.6222098 1.7179382e+19 23
-0.38378853 -4.5937161 1.6174461 1.7179382e+19 23
-0.37093365 -4.599144 1.6189752 1.7179382e+19 23
-0.35770363 -4.6000714 1.6189331 1.7179382e+19 23
-0.34502551 -4.6083632 1.6214956 1.7179382e+19 23
-0.33025327 -4.5881481 1.614042 1.7179382e+19 23
-0.31734216 -4.5931005 1.6154566 1.7179382e+19 23
-0.30456981 -4.6005006 1.6177448 1.7179382e+19 23
-0.2907382 -4.5917664 1.614373 1.7179382e+19 23
-0.27828911 -4.6049962 1.6187363 1.7179382e+19 23
-0.26532122 -4.6104565 1.6203809 1.7179382e+19 23
-0.25092664 -4.5903134 1.6130413 1.7179382e+19 23
-0.23851685 -4.6061773 1.6183683 1.7179382e+19 23
-0.22421496 -4.5851364 1.6107427 1.7179382e+19 23
-0.21175981 -4.6015105 1.6162742 1.7179382e+19 23
-0.19862761 -4.6042953 1.6170453 1.7179382e+19 23
-0.18528114 -4.6020751 1.6160717 1.7179382e+19 23
-0.17195606 -4.6000023 1.6151637 1.7179382e+19 23
-0.15907431 -4.6103501 1.6186297 1.7179382e+19 23
-0.14559081 -4.6034708 1.616061 1.7179382e+19 23
-0.13234952 -4.6035566 1.6159508 1.7179382e+19 23
-0.11886853 -4.5943117 1.612579 1.7179382e+19 23
-0.1058699 -4.6036434 1.6157409 1.7179382e+19 23
-0.09273795 -4.6089306 1.6174963 1.7179382e+19 23
-0.07952439 -4.6111593 1.6181916 1.7179382e+19 23
-0.066178277 -4.6049647 1.6159444 1.7179382e+19 23
-0.052764244 -4.5896692 1.610517 1.7179382e+19 23
-0.03975299 -4.6107893 1.6178813 1.7179382e+19 23
-0.026445977 -4.6014609 1.6145748 1.7179382e+19 23
-0.013250971 -4.6123013 1.6183585 1.7179382e+19 23
6.1203541e-06 -4.6128864 1.618557 1.7179382e+19 23
0.013237983 -4.6035285 1.6152803 1.7179382e+19 23
0.026477937 -4.6048956 1.61578 1.7179382e+19 23
0.039733291 -4.6070862 1.616582 1.7179382e+19 23
0.052912436 -4.6014972 1.6146675 1.7179382e+19 23
0.066144437 -4.6017599 1.6148198 1.7179382e+19 23
0.079460889 -4.6067681 1.6166507 1.7179382e+19 23
0.092500843 -4.59654 1.6131481 1.7179382e+19 23
0.10602928 -4.6100416 1.6179867 1.7179382e+19 23
0.1193119 -4.6109748 1.6184278 1.7179382e+19 23
0.13248304 -4.6077747 1.6174316 1.7179382e+19 23
0.14596926 -4.6150498 1.6201258 1.7179382e+19 23
0.159367 -4.6184773 1.6214832 1.7179382e+19 23
0.17210403 -4.6036334 1.6164387 1.7179382e+19 23
0.1852521 -4.6010499 1.6157118 1.7179382e+19 23
0.19892028 -4.6107955 1.6193283 1.7179382e+19 23
0.21200189 -4.6065049 1.6180288 1.7179382e+19 23
0.22511165 -4.6032233 1.6170967 1.7179382e+19 23
0.24072385 -4.6485591 1.6332593 1.7179382e+19 23
0.25484771 -4.6618166 1.6381679 1.7179382e+19 23
0.26777989 -4.6529655 1.6353213 1.7179382e+19 23
0.28089011 -4.6478314 1.6337938 1.7179382e+19 23
0.29456165 -4.6519566 1.6355349 1.7179382e+19 23
0.30909726 -4.6686993 1.6417269 1.7179382e+19 23
0.32168999 -4.6558495 1.6375266 1.7179382e+19 23
0.33386734 -4.638186 1.6316448 1.7179382e+19 23
0.34801304 -4.6481009 1.6354779 1.7179382e+19 23
0.36247694 -4.6612964 1.6404806 1.7179382e+19 23
0.37561366 -4.6570163 1.6393476 1.7179382e+19 23
0.38918772 -4.6581922 1.6401485 1.7179382e+19 23
0.40288067 -4.6605897 1.6413935 1.7179382e+19 23
0.41659847 -4.6630349 1.6426697 1.7179382e+19 23
0.42932981 -4.6545568 1.640111 1.7179382e+19 23
0.44223642 -4.6483622 1.6383694 1.7179382e+19 23
0.45715579 -4.6629891 1.6439811 1.7179382e+19 23
0.469971 -4.6558542 1.6419351 1.7179382e+19 23
0.48430154 -4.6636348 1.6451632 1.7179382e+19 23
0.49571258 -4.6435676 1.6385801 1.7179382e+19 23
0.51028228 -4.6532936 1.6425228 1.7179382e+19 23
0.52322507 -4.6479878 1.6411741 1.7179382e+19 23
0.53617954 -4.6429753 1.6399416 1.7179382e+19 23
0.55121863 -4.6557403 1.6450032 1.7179382e+19 23
0.56560069 -4.6624007 1.6479239 1.7179382e+19 23
0.57748961 -4.6486025 1.6436268 1.7179382e+19 23
0.59288597 -4.6629467 1.6492944 1.7179382e+19 23
0.60651129 -4.6629543 1.6499069 1.7179382e+19 23
0.62091017 -4.6687016 1.6525651 1.7179382e+19 23
0.6345619 -4.6686277 1.6531777 1.7179382e+19 23
0.64571267 -4.6504683 1.6473978 1.7179382e+19 23
0.66055167 -4.6589961 1.6510844 1.7179382e+19 23
0.67516482 -4.6655407 1.6540847 1.7179382e+19 23
0.68634337 -4.6484857 1.6487308 1.7179382e+19 23
0.70152408 -4.6585965 1.6530253 1.7179382e+19 23
0.81879401 -5.333199 1.8932239 1.7179382e+19 23
0.82983011 -5.3034091 1.8834877 1.7179382e+19 23
0.84768087 -5.3173785 1.8893064 1.7179382e+19 23
0.86331868 -5.3171234 1.8900896 1.7179382e+19 23
0.878977 -5.3169122 1.8909048 1.7179382e+19 23
0.89335227 -5.3089952 1.8889946 1.7179382e+19 23
0.91108197 -5.3208532 1.8941377 1.7179382e+19 23
0.9257583 -5.3146906 1.8928833 1.7179382e+19 23
0.94256568 -5.3206744 1.8959717 1.7179382e+19 23
0.95982122 -5.3288598 1.8998637 1.7179382e+19 23
0.97687078 -5.335566 1.9032478 1.7179382e+19 23
0.98787665 -5.3094854 1.8949497 1.7179382e+19 23
1.0061134 -5.3223877 1.9005787 1.7179382e+19 23
1.0199839 -5.3120613 1.8979303 1.7179382e+19 23
1.0350789 -5.3082399 1.8976201 1.7179382e+19 23
1.0497533 -5.3023205 1.8965747 1.7179382e+19 23
1.069002 -5.3192477 1.9037207 1.7179382e+19 23
1.0866554 -5.3277669 1.9078795 1.7179382e+19 23
1.0999987 -5.315124 1.9044764 1.7179382e+19 23
1.1134281 -5.3031616 1.9013289 1.7179382e+19 23
1.1307976 -5.3099475 1.9049193 1.7179382e+19 23
1.1504283 -5.3269238 1.9121879 1.7179382e+19 23
1.1649046 -5.3198051 1.9108266 1.7179382e+19 23
1.1803477 -5.3171434 1.9110812 1.7179382e+19 23
1.1968442 -5.3191442 1.9130288 1.7179382e+19 23
1.2132198 -5.3204699 1.9147519 1.7179382e+19 23
1.2297888 -5.3225074 1.9167494 1.7179382e+19 23
1.2409736 -5.3013997 1.9104246 1.7179382e+19 23
1.2477175 -5.2620115 1.8975151 1.7179382e+19 23
1.2639128 -5.2628832 1.8991317 1.7179382e+19 23
