# .PCD v0.7 - Point Cloud Data file format
VERSION 0.7
FIELDS x y z intensity ring
SIZE 4 4 4 4 2
TYPE F F F F U
COUNT 1 1 1 1 1
WIDTH 963
HEIGHT 1
VIEWPOINT 0 0 0 1 0 0 0
POINTS 963
DATA ascii
-3.9750199 2.0913098 -0.79225057 2.8572842e+32 1
-3.992327 2.0857859 -0.79450184 2.8572842e+32 1
-3.9934564 2.0717866 -0.79353821 2.8572842e+32 1
-3.9921696 2.0565777 -0.79210466 2.8572842e+32 1
-3.9987814 2.0454614 -0.7922467 2.8572842e+32 1
-3.9917254 2.0273979 -0.78969097 2.8572842e+32 1
-4.030448 2.0325134 -0.79619259 2.8572842e+32 1
-4.0294232 2.0174904 -0.79484123 2.8572842e+32 1
-4.0391889 2.0078807 -0.79562593 2.8572842e+32 1
-4.0416646 1.9946444 -0.794981 2.8572842e+32 1
-4.0389481 1.9788876 -0.79332465 2.8572842e+32 1
-4.038095 1.964097 -0.79204494 2.8572842e+32 1
-4.0491753 1.9551145 -0.79311275 2.8572842e+32 1
-4.0513678 1.9418335 -0.79244572 2.8572842e+32 1
-4.0658979 1.9344462 -0.79419696 2.8572842e+32 1
-4.0642614 1.9193611 -0.79279643 2.8572842e+32 1
-4.0686674 1.9071584 -0.79258323 2.8572842e+32 1
-4.0683045 1.8927448 -0.79144955 2.8572842e+32 1
-4.0958862 1.891275 -0.79575443 2.8572842e+32 1
-4.1032867 1.8804026 -0.79613894 2.8572842e+32 1
-4.1027951 1.8659267 -0.7949996 2.8572842e+32 1
-4.0887332 1.8453671 -0.79124379 2.8572842e+32 1
-4.098959 1.8358191 -0.79219824 2.8572842e+32 1
-4.1122489 1.8275988 -0.79374826 2.8572842e+32 1
-4.1156821 1.8149766 -0.7934007 2.8572842e+32 1
-4.1144004 1.8003033 -0.79215282 2.8572842e+32 1
-4.1282897 1.7922608 -0.79383183 2.8572842e+32 1
-4.1243367 1.7764734 -0.7920866 2.8572842e+32 1
-4.1207504 1.7609043 -0.7904225 2.8572842e+32 1
-4.1402216 1.7551689 -0.79318649 2.8572842e+32 1
-4.1382923 1.7403357 -0.79185522 2.8572842e+32 1
-4.162662 1.7365205 -0.79556 2.8572842e+32 1
-4.1530147 1.7184985 -0.7927689 2.8572842e+32 1
-4.1690731 1.711125 -0.79489213 2.8572842e+32 1
-4.1614208 1.6940247 -0.79250151 2.8572842e+32 1
-4.1697965 1.6834793 -0.79317182 2.8572842e+32 1
-4.1683598 1.6689814 -0.79198271 2.8572842e+32 1
-4.1688671 1.6552969 -0.79117185 2.8572842e+32 1
-4.1688271 1.6414254 -0.79026568 2.8572842e+32 1
-4.1922345 1.6367397 -0.7938078 2.8572842e+32 1
-4.1989813 1.6254807 -0.79419732 2.8572842e+32 1
-4.2107086 1.6161195 -0.7955336 2.8572842e+32 1
-4.2071972 1.600913 -0.79399759 2.8572842e+32 1
-4.2101665 1.5882045 -0.79369307 2.8572842e+32 1
-4.2037172 1.5719846 -0.79162228 2.8572842e+32 1
-4.216208 1.5628569 -0.79312521 2.8572842e+32 1
-4.2050867 1.5450019 -0.79019457 2.8572842e+32 1
-4.2324038 1.5412457 -0.79449207 2.8572842e+32 1
-4.2488775 1.5334272 -0.79675382 2.8572842e+32 1
-4.2213802 1.5098037 -0.79078043 2.8572842e+32 1
-4.2506289 1.5064985 -0.79544508 2.8572842e+32 1
-4.2296596 1.4853961 -0.79071873 2.8572842e+32 1
-4.2416887 1.475939 -0.79217124 2.8572842e+32 1
-4.2499328 1.4651268 -0.79292113 2.8572842e+32 1
-4.2529101 1.4524897 -0.79269439 2.8572842e+32 1
-4.2571201 1.4402776 -0.79270428 2.8572842e+32 1
-4.2546659 1.4258316 -0.79148084 2.8572842e+32 1
-4.2795062 1.4204873 -0.79533899 2.8572842e+32 1
-4.265923 1.4023792 -0.79206216 2.8572842e+32 1
-4.2740116 1.3914387 -0.79281819 2.8572842e+32 1
-4.2635412 1.3744891 -0.79013973 2.8572842e+32 1
-4.2926812 1.3702753 -0.79480696 2.8572842e+32 1
-4.3065181 1.3610651 -0.79664129 2.8572842e+32 1
-4.3097777 1.3484827 -0.79652399 2.8572842e+32 1
-4.2975583 1.3311099 -0.7935552 2.8572842e+32 1
-4.3046994 1.3197739 -0.79417014 2.8572842e+32 1
-4.289916 1.3017639 -0.79074919 2.8572842e+32 1
-4.3016324 1.2918283 -0.79222113 2.8572842e+32 1
-4.3098836 1.2808129 -0.79305947 2.8572842e+32 1
-4.3225532 1.271068 -0.79471523 2.8572842e+32 1
-4.3113332 1.2543166 -0.79198635 2.8572842e+32 1
-4.3196568 1.2432826 -0.79285562 2.8572842e+32 1
-4.3230157 1.2308055 -0.79281956 2.8572842e+32 1
-4.3326135 1.2200863 -0.79393327 2.8572842e+32 1
-4.3313866 1.2063148 -0.79306978 2.8572842e+32 1
-4.3410478 1.1955711 -0.79420632 2.8572842e+32 1
-4.3469486 1.1837648 -0.79466009 2.8572842e+32 1
-4.3500743 1.1711957 -0.79461277 2.8572842e+32 1
-4.3536587 1.1587505 -0.79465592 2.8572842e+32 1
-4.3578272 1.1464572 -0.79481196 2.8572842e+32 1
-4.3448033 1.1296885 -0.79184109 2.8572842e+32 1
-4.3446393 1.1163237 -0.79122317 2.8572842e+32 1
-4.3718085 1.1099192 -0.79558682 2.8572842e+32 1
-4.3804345 1.0987167 -0.79657859 2.8572842e+32 1
-4.370388 1.0828544 -0.79418236 2.8572842e+32 1
-4.3704481 1.0695457 -0.79363137 2.8572842e+32 1
-4.380877 1.0587612 -0.79496926 2.8572842e+32 1
-4.3762021 1.0443275 -0.79357302 2.8572842e+32 1
-4.368216 1.0291603 -0.79158509 2.8572842e+32 1
-4.3736372 1.0171776 -0.79203445 2.8572842e+32 1
-4.3946924 1.0087684 -0.79531896 2.8572842e+32 1
-4.375998 0.99124533 -0.79141688 2.8572842e+32 1
-4.3746324 0.97772545 -0.79065841 2.8572842e+32 1
-4.3857446 0.96698201 -0.79216123 2.8572842e+32 1
-4.3969598 0.95621067 -0.79368722 2.8572842e+32 1
-4.4035449 0.9443953 -0.79438263 2.8572842e+32 1
-4.4024544 0.93093365 -0.79369992 2.8572842e+32 1
-4.3968959 0.91656321 -0.79221952 2.8572842e+32 1
-4.4029655 0.90463114 -0.79284143 2.8572842e+32 1
-4.4026837 0.89139217 -0.79232603 2.8572842e+32 1
-4.4089293 0.87947237 -0.79299182 2.8572842e+32 1
-4.4131579 0.86713403 -0.79330087 2.8572842e+32 1
-4.4103813 0.85342973 -0.7923575 2.8572842e+32 1
-4.4189205 0.84191263 -0.79345363 2.8572842e+32 1
-4.4243069 0.82976764 -0.79398918 2.8572842e+32 1
-4.4186645 0.81556928 -0.79255265 2.8572842e+32 1
-4.4320049 0.80486566 -0.79452723 2.8572842e+32 1
-4.4213367 0.78980786 -0.7922045 2.8572842e+32 1
-4.4233785 0.77705956 -0.79216689 2.8572842e+32 1
-4.4360995 0.76615679 -0.79404742 2.8572842e+32 1
-4.4274406 0.75156248 -0.79210758 2.8572842e+32 1
-4.4318376 0.73920983 -0.79251081 2.8572842e+32 1
-4.4479094 0.72875655 -0.79500699 2.8572842e+32 1
-4.4512348 0.71617001 -0.79523015 2.8572842e+32 1
-4.4505401 0.70294094 -0.79474169 2.8572842e+32 1
-4.4477787 0.68940765 -0.79389149 2.8572842e+32 1
-4.4491158 0.67652547 -0.79377979 2.8572842e+32 1
-4.4409928 0.66223615 -0.79198766 2.8572842e+32 1
-4.4412017 0.64922374 -0.79168886 2.8572842e+32 1
-4.445816 0.63685215 -0.79218185 2.8572842e+32 1
-4.4541922 0.62499201 -0.79335099 2.8572842e+32 1
-4.4590964 0.6126163 -0.79390758 2.8572842e+32 1
-4.4427996 0.59737158 -0.7906971 2.8572842e+32 1
-4.4503775 0.58537263 -0.7917431 2.8572842e+32 1
-4.4605484 0.57367265 -0.79325593 2.8572842e+32 1
-4.4717646 0.56205422 -0.79495996 2.8572842e+32 1
-4.4673586 0.54846179 -0.7938931 2.8572842e+32 1
-4.4609694 0.53466666 -0.79248142 2.8572842e+32 1
-4.4780259 0.52365935 -0.79524076 2.8572842e+32 1
-4.4689574 0.50958258 -0.79336691 2.8572842e+32 1
-4.4856091 0.49842498 -0.79606545 2.8572842e+32 1
-4.4752922 0.48426065 -0.79398412 2.8572842e+32 1
-4.4777551 0.47151017 -0.79417741 2.8572842e+32 1
-4.4754357 0.45826355 -0.79352915 2.8572842e+32 1
-4.4774628 0.44547045 -0.79365826 2.8572842e+32 1
-4.4647784 0.43125209 -0.79118693 2.8572842e+32 1
-4.4796314 0.41969445 -0.79360193 2.8572842e+32 1
-4.4687958 0.40572539 -0.79147243 2.8572842e+32 1
-4.4832382 0.39404768 -0.79382646 2.8572842e+32 1
-4.480979 0.38087323 -0.79322928 2.8572842e+32 1
-4.4856853 0.36829016 -0.79387176 2.8572842e+32 1
-4.4800549 0.35486713 -0.79269147 2.8572842e+32 1
-4.4731274 0.34138364 -0.79128885 2.8572842e+32 1
-4.4810872 0.32903901 -0.79252642 2.8572842e+32 1
-4.492918 0.31692687 -0.79445434 2.8572842e+32 1
-4.4771366 0.30288368 -0.79150665 2.8572842e+32 1
-4.4885445 0.29069752 -0.79337245 2.8572842e+32 1
-4.4901381 0.27784303 -0.79350966 2.8572842e+32 1
-4.4942803 0.26513433 -0.79410374 2.8572842e+32 1
-4.5149755 0.25333491 -0.79762846 2.8572842e+32 1
-4.4901018 0.23899488 -0.7931096 2.8572842e+32 1
-4.4828672 0.2256902 -0.79171383 2.8572842e+32 1
-4.4983711 0.21351023 -0.79434031 2.8572842e+32 1
-4.4894261 0.20015444 -0.79265589 2.8572842e+32 1
-4.4928713 0.18737023 -0.79316586 2.8572842e+32 1
-4.5049829 0.17490573 -0.79521197 2.8572842e+32 1
-4.4962144 0.16162384 -0.79357886 2.8572842e+32 1
-4.4894142 0.14846018 -0.79230011 2.8572842e+32 1
-4.4992304 0.13583979 -0.79396027 2.8572842e+32 1
-4.514719 0.12332009 -0.79662758 2.8572842e+32 1
-4.4891796 0.10971066 -0.79206222 2.8572842e+32 1
-4.4935427 0.096894749 -0.79277962 2.8572842e+32 1
-4.5028877 0.084148437 -0.79438239 2.8572842e+32 1
-4.4977307 0.071120463 -0.79343331 2.8572842e+32 1
-4.5023513 0.058249813 -0.7942155 2.8572842e+32 1
-4.4955401 0.045238528 -0.79298788 2.8572842e+32 1
-4.4990768 0.032341532 -0.79359204 2.8572842e+32 1
-4.5057917 0.019438451 -0.79476339 2.8572842e+32 1
-4.5133643 0.0064983219 -0.79609251 2.8572842e+32 1
-4.5071096 1.1960021e-05 -0.79498845 2.8572842e+32 1
-3.9277513 -0.0056551588 -0.7400288 2.8572842e+32 0
-3.9301245 -0.016954962 -0.74048203 2.8572842e+32 0
-3.9283149 -0.028238621 -0.74015337 2.8572842e+32 0
-3.9442544 -0.039690953 -0.74317503 2.8572842e+32 0
-3.9447472 -0.051035732 -0.74329239 2.8572842e+32 0
-3.9338276 -0.062203731 -0.74126554 2.8572842e+32 0
-3.9249864 -0.073348813 -0.73963618 2.8572842e+32 0
-3.9338036 -0.084825031 -0.74134064 2.8572842e+32 0
-3.9185445 -0.095764965 -0.73851383 2.8572842e+32 0
-3.9515088 -0.10793594 -0.74478185 2.8572842e+32 0
-3.9342055 -0.11878067 -0.74158186 2.8572842e+32 0
-3.9280922 -0.12989785 -0.74049681 2.8572842e+32 0
-3.9420807 -0.14170457 -0.74320751 2.8572842e+32 0
-3.934036 -0.15273875 -0.74177057 2.8572842e+32 0
-3.9291325 -0.16386011 -0.74093175 2.8572842e+32 0
-3.9111242 -0.1743717 -0.73762733 2.8572842e+32 0
-3.9323678 -0.18664551 -0.74173194 2.8572842e+32 0
-3.914681 -0.19708483 -0.73849958 2.8572842e+32 0
-3.9167161 -0.20847523 -0.73899353 2.8572842e+32 0
-3.9271185 -0.22035033 -0.74107265 2.8572842e+32 0
-3.9267864 -0.23165576 -0.74113256 2.8572842e+32 0
-3.9411204 -0.24387066 -0.74396718 2.8572842e+32 0
-3.9185734 -0.25378373 -0.73984557 2.8572842e+32 0
-3.9343719 -0.26616499 -0.74296975 2.8572842e+32 0
-3.919908 -0.2765072 -0.74038547 2.8572842e+32 0
-3.9187465 -0.2877472 -0.74031919 2.8572842e+32 0
-3.9134798 -0.29867202 -0.73948336 2.8572842e+32 0
-3.9287431 -0.31119749 -0.74253345 2.8572842e+32 0
-3.9217281 -0.32198733 -0.74137944 2.8572842e+32 0
-3.9076691 -0.33214319 -0.73889911 2.8572842e+32 0
-3.9139736 -0.34401298 -0.74027514 2.8572842e+32 0
-3.9156106 -0.35550129 -0.74077493 2.8572842e+32 0
-3.9104002 -0.36636344 -0.73998535 2.8572842e+32 0
-3.9172194 -0.37836346 -0.7414785 2.8572842e+32 0
-3.9060102 -0.38861567 -0.73956519 2.8572842e+32 0
-3.9202688 -0.40141705 -0.74248028 2.8572842e+32 0
-3.9050477 -0.41120374 -0.73981827 2.8572842e+32 0
-3.8952987 -0.42150095 -0.7381978 2.8572842e+32 0
-3.8969204 -0.43301198 -0.73873794 2.8572842e+32 0
-3.9046376 -0.44523478 -0.74044043 2.8572842e+32 0
-3.9038367 -0.45651382 -0.74053431 2.8572842e+32 0
-3.9035344 -0.4678556 -0.74072903 2.8572842e+32 0
-3.9043596 -0.47934189 -0.74114394 2.8572842e+32 0
-3.8969142 -0.48980153 -0.73999482 2.8572842e+32 0
-3.9022362 -0.50186795 -0.74127632 2.8572842e+32 0
-3.8948317 -0.51229984 -0.74014634 2.8572842e+32 0
-3.9047759 -0.52502984 -0.74231982 2.8572842e+32 0
-3.8818781 -0.53331476 -0.7382552 2.8572842e+32 0
-3.8812613 -0.54460096 -0.73843253 2.8572842e+32 0
-3.8948696 -0.55793041 -0.74132365 2.8572842e+32 0
-3.8906589 -0.5687443 -0.74083024 2.8572842e+32 0
-3.8899114 -0.58005947 -0.74100238 2.8572842e+32 0
-3.8934829 -0.59203678 -0.7420038 2.8572842e+32 0
-3.8940303 -0.60357642 -0.74243563 2.8572842e+32 0
-3.8740144 -0.61188155 -0.73895168 2.8572842e+32 0
-3.8962717 -0.62688065 -0.74353784 2.8572842e+32 0
-3.8846314 -0.63646764 -0.7416625 2.8572842e+32 0
-3.8799279 -0.64715379 -0.74111652 2.8572842e+32 0
-3.8662663 -0.65630251 -0.7388643 2.8572842e+32 0
-3.8854334 -0.6710515 -0.7428928 2.8572842e+32 0
-3.8737638 -0.68050814 -0.74103248 2.8572842e+32 0
-3.8715534 -0.69159704 -0.74098682 2.8572842e+32 0
-3.8560271 -0.70026636 -0.73839742 2.8572842e+32 0
-3.8648863 -0.71335638 -0.7404834 2.8572842e+32 0
-3.8444853 -0.72102356 -0.73696876 2.8572842e+32 0
-3.877825 -0.73882061 -0.7437638 2.8572842e+32 0
-3.866281 -0.74814373 -0.7419591 2.8572842e+32 0
-3.8537393 -0.75721478 -0.73996687 2.8572842e+32 0
-3.8730066 -0.77256906 -0.74408978 2.8572842e+32 0
-3.8416708 -0.77780634 -0.73849589 2.8572842e+32 0
-3.844404 -0.78986931 -0.73945469 2.8572842e+32 0
-3.841337 -0.80075312 -0.73930442 2.8572842e+32 0
-3.8407958 -0.81216651 -0.73964649 2.8572842e+32 0
-3.8324869 -0.82192475 -0.73849827 2.8572842e+32 0
-3.8192749 -0.83058101 -0.73640943 2.8572842e+32 0
-3.8432481 -0.84737074 -0.74149835 2.8572842e+32 0
-3.8383 -0.8578558 -0.74101633 2.8572842e+32 0
-3.8480823 -0.87166262 -0.74338555 2.8572842e+32 0
-3.8367417 -0.88069504 -0.74168062 2.8572842e+32 0
-3.8170471 -0.88773131 -0.73836368 2.8572842e+32 0
-3.8238773 -0.90091294 -0.74018276 2.8572842e+32 0
-3.8328454 -0.914662 -0.74242455 2.8572842e+32 0
-3.820086 -0.92323041 -0.74046397 2.8572842e+32 0
-3.812084 -0.93290156 -0.73942959 2.8572842e+32 0
-3.8208556 -0.94669634 -0.74165577 2.8572842e+32 0
-3.8170447 -0.95740527 -0.74144715 2.8572842e+32 0
-3.7993364 -0.96457934 -0.73854285 2.8572842e+32 0
-3.8006859 -0.97655886 -0.73934776 2.8572842e+32 0
-3.8008122 -0.98824579 -0.73992187 2.8572842e+32 0
-3.8062997 -1.0013614 -0.74154741 2.8572842e+32 0
-3.7856781 -1.0075793 -0.73809105 2.8572842e+32 0
-3.8029432 -1.0238886 -0.74202794 2.8572842e+32 0
-3.7845113 -1.0306014 -0.73900646 2.8572842e+32 0
-3.7864423 -1.0428268 -0.73996574 2.8572842e+32 0
-3.7965894 -1.0573709 -0.74253964 2.8572842e+32 0
-3.7916353 -1.0677441 -0.74216783 2.8572842e+32 0
-3.7688913 -1.0730407 -0.73831666 2.8572842e+32 0
-3.7751443 -1.0865611 -0.74015033 2.8572842e+32 0
-3.7705216 -1.0969756 -0.7398591 2.8572842e+32 0
-3.7739699 -1.1097543 -0.7411586 2.8572842e+32 0
-3.7766464 -1.1223451 -0.7423147 2.8572842e+32 0
-3.7645583 -1.1305389 -0.74057436 2.8572842e+32 0
-3.7559078 -1.1397204 -0.73951399 2.8572842e+32 0
-3.7745988 -1.1572508 -0.743846 2.8572842e+32 0
-3.75737 -1.163794 -0.74110693 2.8572842e+32 0
-3.756458 -1.1753551 -0.74159032 2.8572842e+32 0
-3.7421927 -1.1827115 -0.73944217 2.8572842e+32 0
-3.7463553 -1.1958815 -0.74094081 2.8572842e+32 0
-3.7409637 -1.2060195 -0.74055701 2.8572842e+32 0
-3.7288771 -1.2139658 -0.73885202 2.8572842e+32 0
-3.7290254 -1.2258794 -0.73957652 2.8572842e+32 0
-3.7414107 -1.2418784 -0.74273777 2.8572842e+32 0
-3.7290492 -1.2496859 -0.7409938 2.8572842e+32 0
-3.7201526 -1.2586095 -0.73994178 2.8572842e+32 0
-3.7139344 -1.2684141 -0.73942703 2.8572842e+32 0
-3.7200255 -1.2824458 -0.74137062 2.8572842e+32 0
-3.7117355 -1.2915362 -0.74045521 2.8572842e+32 0
-3.699363 -1.2991636 -0.73872888 2.8572842e+32 0
-3.6931918 -1.3089328 -0.73824477 2.8572842e+32 0
-3.7093637 -1.3266777 -0.74223661 2.8572842e+32 0
-3.6903727 -1.3318619 -0.73919952 2.8572842e+32 0
-3.705734 -1.3494569 -0.74305034 2.8572842e+32 0
-3.6939726 -1.3572121 -0.74147117 2.8572842e+32 0
-3.689131 -1.367481 -0.7412852 2.8572842e+32 0
-3.6794412 -1.3759309 -0.74012977 2.8572842e+32 0
-3.6699581 -1.3844213 -0.73901963 2.8572842e+32 0
-3.6754458 -1.3985721 -0.74093109 2.8572842e+32 0
-3.6695659 -1.4084226 -0.7405588 2.8572842e+32 0
-3.6678045 -1.4198552 -0.7410239 2.8572842e+32 0
-3.6539862 -1.4265959 -0.73905748 2.8572842e+32 0
-3.665884 -1.4433976 -0.74230003 2.8572842e+32 0
-3.6460869 -1.4477211 -0.73913085 2.8572842e+32 0
-3.6490498 -1.4610535 -0.74057972 2.8572842e+32 0
-3.6586416 -1.4771098 -0.74338502 2.8572842e+32 0
-3.6457679 -1.4841136 -0.74163294 2.8572842e+32 0
-3.6355841 -1.4921635 -0.74043071 2.8572842e+32 0
-3.6450632 -1.5083104 -0.74324113 2.8572842e+32 0
-3.6317403 -1.5150381 -0.74140942 2.8572842e+32 0
-3.6199355 -1.5223436 -0.73988968 2.8572842e+32 0
-3.6278362 -1.5379528 -0.742405 2.8572842e+32 0
-3.6007066 -1.538676 -0.73775518 2.8572842e+32 0
-3.6195352 -1.5590404 -0.74252808 2.8572842e+32 0
-3.6015213 -1.5635689 -0.73975152 2.8572842e+32 0
-3.5994792 -1.5749936 -0.74025881 2.8572842e+32 0
-3.6058226 -1.5901333 -0.74250031 2.8572842e+32 0
-3.5943837 -1.597445 -0.74108726 2.8572842e+32 0
-3.5838895 -1.6051326 -0.73987174 2.8572842e+32 0
-3.5934255 -1.62182 -0.7427997 2.8572842e+32 0
-3.5581727 -1.6182357 -0.73647094 2.8572842e+32 0
-3.5763607 -1.6389295 -0.74120748 2.8572842e+32 0
-3.5773697 -1.6518501 -0.74239755 2.8572842e+32 0
-3.5606177 -1.6565477 -0.73990613 2.8572842e+32 0
-3.5567837 -1.6672167 -0.74010217 2.8572842e+32 0
-3.5601888 -1.681311 -0.74181324 2.8572842e+32 0
-3.5600448 -1.6937747 -0.74279451 2.8572842e+32 0
-3.5451367 -1.6991953 -0.74069995 2.8572842e+32 0
-3.5487056 -1.7134664 -0.74247158 2.8572842e+32 0
-3.5396249 -1.7216451 -0.74160397 2.8572842e+32 0
-3.5313787 -1.7302034 -0.74091518 2.8572842e+32 0
-3.5246539 -1.7394891 -0.74055016 2.8572842e+32 0
-3.5258615 -1.7527056 -0.74185932 2.8572842e+32 0
-3.5303473 -1.7676083 -0.74386901 2.8572842e+32 0
-3.499989 -1.7650083 -0.73853827 2.8572842e+32 0
-3.5048714 -1.7801247 -0.74064505 2.8572842e+32 0
-3.5148034 -1.7978964 -0.74383289 2.8572842e+32 0
-3.4879 -1.7968017 -0.7392292 2.8572842e+32 0
-3.4936669 -1.8124981 -0.74155253 2.8572842e+32 0
-3.4750249 -1.8155222 -0.73870027 2.8572842e+32 0
-3.4809709 -1.8313841 -0.74108011 2.8572842e+32 0
-3.47665 -1.841889 -0.74128425 2.8572842e+32 0
-3.4641399 -1.8480324 -0.73974639 2.8572842e+32 0
-3.4758205 -1.8671173 -0.74338365 2.8572842e+32 0
-3.4600329 -1.8714713 -0.74115455 2.8572842e+32 0
-3.4537134 -1.8809043 -0.74095583 2.8572842e+32 0
-3.4488485 -1.8911281 -0.74107522 2.8572842e+32 0
-3.4428773 -1.9007454 -0.74096298 2.8572842e+32 0
-3.4176154 -1.8996364 -0.73669827 2.8572842e+32 0
-3.4289136 -1.9188377 -0.74031955 2.8572842e+32 0
-3.4148064 -1.9238528 -0.73846453 2.8572842e+32 0
-3.426044 -1.9431779 -0.74209952 2.8572842e+32 0
-3.4219513 -1.9538776 -0.7424264 2.8572842e+32 0
-3.4049115 -1.9571469 -0.73994684 2.8572842e+32 0
-3.3900268 -1.961576 -0.73793441 2.8572842e+32 0
-3.3982689 -1.9794047 -0.74096388 2.8572842e+32 0
-3.3837073 -1.9839702 -0.73902917 2.8572842e+32 0
-3.3925436 -2.0022769 -0.74221301 2.8572842e+32 0
-3.3666644 -2.0000725 -0.73780584 2.8572842e+32 0
-3.3571098 -2.0074737 -0.73697346 2.8572842e+32 0
-3.372426 -2.0298145 -0.74161351 2.8572842e+32 0
-3.3657136 -2.0389757 -0.74142307 2.8572842e+32 0
-3.3579445 -2.0474863 -0.741005 2.8572842e+32 0
-3.3578987 -2.0607214 -0.7422989 2.8572842e+32 0
-3.3439476 -2.0654144 -0.74052417 2.8572842e+32 0
-3.340378 -2.0764973 -0.74105233 2.8572842e+32 0
-3.3353384 -2.0866797 -0.74126184 2.8572842e+32 0
-3.3234317 -2.0925457 -0.73994929 2.8572842e+32 0
-3.3203125 -2.1039331 -0.74059814 2.8572842e+32 0
-3.319046 -2.1165254 -0.74166954 2.8572842e+32 0
-3.3108895 -2.1247349 -0.74120849 2.8572842e+32 0
-3.3068631 -2.1355948 -0.74167818 2.8572842e+32 0
-3.2904074 -2.1383948 -0.73936296 2.8572842e+32 0
-3.289094 -2.1510129 -0.74045402 2.8572842e+32 0
-3.3037801 -2.1742003 -0.74516398 2.8572842e+32 0
-3.2798254 -2.1719716 -0.74116606 2.8572842e+32 0
-3.2705243 -2.1793609 -0.74047673 2.8572842e+32 0
-3.2703056 -2.1928148 -0.74185115 2.8572842e+32 0
-3.258502 -2.1985033 -0.74060392 2.8572842e+32 0
-3.2498119 -2.2062595 -0.74006706 2.8572842e+32 0
-3.2505376 -2.220428 -0.74168265 2.8572842e+32 0
-3.2304487 -2.22035 -0.73855209 2.8572842e+32 0
-3.242815 -2.2426007 -0.74284989 2.8572842e+32 0
-3.2282734 -2.2462885 -0.74099469 2.8572842e+32 0
-3.2236507 -2.2568512 -0.74141949 2.8572842e+32 0
-3.2141902 -2.2640224 -0.74073726 2.8572842e+32 0
-3.2129824 -2.2770166 -0.74196422 2.8572842e+32 0
-3.2108846 -2.2894225 -0.74299622 2.8572842e+32 0
-3.1936407 -2.2910018 -0.74052674 2.8572842e+32 0
-3.1861858 -2.2995536 -0.74032772 2.8572842e+32 0
-3.1723404 -2.3034577 -0.73864597 2.8572842e+32 0
-3.177706 -2.321332 -0.74144578 2.8572842e+32 0
-3.1767604 -2.3346744 -0.74278784 2.8572842e+32 0
-3.1708493 -2.3443961 -0.74297822 2.8572842e+32 0
-3.1675625 -2.3560777 -0.74379182 2.8572842e+32 0
-3.1458728 -2.3540194 -0.74028444 2.8572842e+32 0
-3.1395931 -2.3634279 -0.74040228 2.8572842e+32 0
-3.137567 -2.3760619 -0.74153191 2.8572842e+32 0
-3.1284947 -2.3833716 -0.74100375 2.8572842e+32 0
-3.1147158 -2.387054 -0.73936218 2.8572842e+32 0
-3.1126835 -2.3997295 -0.74051404 2.8572842e+32 0
-3.1027043 -2.4062862 -0.73978233 2.8572842e+32 0
-3.1096334 -2.4260058 -0.74309397 2.8572842e+32 0
-3.0881169 -2.4235303 -0.73961383 2.8572842e+32 0
-3.0913131 -2.440429 -0.74205625 2.8572842e+32 0
-3.0746424 -2.4416459 -0.73973608 2.8572842e+32 0
-3.0767434 -2.4577677 -0.74193811 2.8572842e+32 0
-3.0623183 -2.4606967 -0.74016213 2.8572842e+32 0
-3.0584698 -2.4721045 -0.74094623 2.8572842e+32 0
-3.0552351 -2.4840429 -0.7418893 2.8572842e+32 0
-3.0481064 -2.4928336 -0.74189508 2.8572842e+32 0
-3.041687 -2.502208 -0.74208003 2.8572842e+32 0
-3.0305388 -2.5076773 -0.74111569 2.8572842e+32 0
-3.010427 -2.5056477 -0.73795551 2.8572842e+32 0
-3.0147238 -2.523927 -0.74078405 2.8572842e+32 0
-3.0101929 -2.5348859 -0.741458 2.8572842e+32 0
-2.9938507 -2.5358672 -0.73922491 2.8572842e+32 0
-2.9918165 -2.5489492 -0.74052858 2.8572842e+32 0
-2.9821861 -2.5555742 -0.73996001 2.8572842e+32 0
-2.9678066 -2.5580828 -0.73821342 2.8572842e+32 0
-2.9761887 -2.5802546 -0.74214 2.8572842e+32 0
-2.9785295 -2.5973175 -0.74458224 2.8572842e+32 0
-2.9537003 -2.5906494 -0.74023378 2.8572842e+32 0
-2.9443653 -2.5974727 -0.73976225 2.8572842e+32 0
-2.9377599 -2.6066992 -0.73998207 2.8572842e+32 0
-2.9370427 -2.6211901 -0.74169612 2.8572842e+32 0
-2.934689 -2.6342819 -0.74301076 2.8572842e+32 0
-2.9314065 -2.6465895 -0.74410254 2.8572842e+32 0
-2.9127355 -2.6449683 -0.74128985 2.8572842e+32 0
-2.9023314 -2.6507814 -0.740578 2.8572842e+32 0
-2.888972 -2.6538506 -0.7391125 2.8572842e+32 0
-2.8923001 -2.672277 -0.74192595 2.8572842e+32 0
-2.8790708 -2.6754344 -0.740502 2.8572842e+32 0
-2.8699074 -2.6823323 -0.74012506 2.8572842e+32 0
-2.8690665 -2.6970384 -0.74190432 2.8572842e+32 0
-2.8578441 -2.702004 -0.74100757 2.8572842e+32 0
-2.8527796 -2.7127874 -0.74171311 2.8572842e+32 0
-2.83374 -2.7102349 -0.73878521 2.8572842e+32 0
-2.8388562 -2.7307947 -0.74216229 2.8572842e+32 0
-2.838387 -2.7460945 -0.74410009 2.8572842e+32 0
-2.8106558 -2.7349489 -0.73888791 2.8572842e+32 0
-2.805877 -2.7460439 -0.73970354 2.8572842e+32 0
-2.8009086 -2.7569876 -0.74047977 2.8572842e+32 0
-2.7978764 -2.7698815 -0.74177986 2.8572842e+32 0
-2.7885227 -2.7765372 -0.7414127 2.8572842e+32 0
-2.781261 -2.7852721 -0.74160749 2.8572842e+32 0
-2.7659373 -2.7858953 -0.73965359 2.8572842e+32 0
-2.7616765 -2.7976408 -0.74066144 2.8572842e+32 0
-2.7542357 -2.8061905 -0.74082601 2.8572842e+32 0
-2.7454107 -2.813329 -0.74062431 2.8572842e+32 0
-2.7418928 -2.8259287 -0.74186343 2.8572842e+32 0
-2.7269735 -2.8267641 -0.740022 2.8572842e+32 0
-2.7234941 -2.8394456 -0.7412895 2.8572842e+32 0
-2.7020104 -2.8333039 -0.73765552 2.8572842e+32 0
-2.7114816 -2.8596478 -0.74248207 2.8572842e+32 0
-2.6926949 -2.8562322 -0.73958272 2.8572842e+32 0
-2.6852324 -2.864769 -0.73979163 2.8572842e+32 0
-2.68876 -2.885108 -0.74304509 2.8572842e+32 0
-2.6747248 -2.8866386 -0.74145621 2.8572842e+32 0
-2.6564455 -2.8834913 -0.73868352 2.8572842e+32 0
-2.6654656 -2.9100225 -0.74351454 2.8572842e+32 0
-2.6509972 -2.9109812 -0.74180955 2.8572842e+32 0
-2.6370862 -2.912478 -0.74025637 2.8572842e+32 0
-2.6239123 -2.9147227 -0.73890698 2.8572842e+32 0
-2.6123626 -2.9187207 -0.73801392 2.8572842e+32 0
-2.612669 -2.9360011 -0.74048144 2.8572842e+32 0
-2.613236 -2.9536901 -0.74304527 2.8572842e+32 0
-2.603677 -2.9599855 -0.74274331 2.8572842e+32 0
-2.5881755 -2.9594724 -0.74074477 2.8572842e+32 0
-2.574466 -2.9609275 -0.73925382 2.8572842e+32 0
-2.578356 -2.9826722 -0.7428295 2.8572842e+32 0
-2.5740042 -2.9949946 -0.74405271 2.8572842e+32 0
-2.549973 -2.9843435 -0.73958272 2.8572842e+32 0
-2.5442228 -2.9950016 -0.74040866 2.8572842e+32 0
-2.5433409 -3.0114632 -0.74266791 2.8572842e+32 0
-2.5260298 -3.0084653 -0.74013501 2.8572842e+32 0
-2.5235834 -3.023154 -0.74196112 2.8572842e+32 0
-2.5049601 -3.0184374 -0.7390334 2.8572842e+32 0
-2.5043621 -3.035428 -0.74142796 2.8572842e+32 0
-2.4839082 -3.0283263 -0.73794633 2.8572842e+32 0
-2.4828098 -3.0447934 -0.74021703 2.8572842e+32 0
-2.4683685 -3.0449109 -0.73851776 2.8572842e+32 0
-2.4599566 -3.0524278 -0.7386229 2.8572842e+32 0
-2.4537988 -3.0627632 -0.73941416 2.8572842e+32 0
-2.4516699 -3.0781963 -0.74143577 2.8572842e+32 0
-2.441149 -3.0831299 -0.74093091 2.8572842e+32 0
-2.4405048 -3.1005864 -0.74343723 2.8572842e+32 0
-2.4222558 -3.0956683 -0.74058557 2.8572842e+32 0
-2.4190838 -3.109992 -0.74234581 2.8572842e+32 0
-2.4106214 -3.1175613 -0.74249566 2.8572842e+32 0
-2.4020681 -3.1250205 -0.7426247 2.8572842e+32 0
-2.3895457 -3.1272912 -0.74152911 2.8572842e+32 0
-2.3804994 -3.1340837 -0.74151427 2.8572842e+32 0
-2.3712807 -3.1406474 -0.74145156 2.8572842e+32 0
-2.3635912 -3.1492453 -0.7418744 2.8572842e+32 0
-2.353606 -3.1547878 -0.74158341 2.8572842e+32 0
-2.3404071 -3.1559823 -0.74027979 2.8572842e+32 0
-2.3258939 -3.1553264 -0.73855478 2.8572842e+32 0
-2.3311455 -3.1815572 -0.74312311 2.8572842e+32 0
-2.3264799 -3.1944075 -0.74455965 2.8572842e+32 0
-2.3157423 -3.1989453 -0.74406278 2.8572842e+32 0
-2.2986312 -3.1945992 -0.74151212 2.8572842e+32 0
-2.2873795 -3.1983125 -0.74084491 2.8572842e+32 0
-2.2769272 -3.2031155 -0.74043846 2.8572842e+32 0
-2.2707527 -3.2139513 -0.74143147 2.8572842e+32 0
-2.2540901 -3.2099051 -0.73900038 2.8572842e+32 0
-2.255528 -3.2316635 -0.74251401 2.8572842e+32 0
-2.2396374 -3.2286291 -0.74033475 2.8572842e+32 0
-2.2281528 -3.231869 -0.73960608 2.8572842e+32 0
-2.2208276 -3.2411399 -0.74026382 2.8572842e+32 0
-2.2195337 -3.2593033 -0.74295217 2.8572842e+32 0
-2.1947265 -3.2428703 -0.73776531 2.8572842e+32 0
-2.1909678 -3.2574487 -0.73964614 2.8572842e+32 0
-2.1854844 -3.2695498 -0.74096447 2.8572842e+32 0
-2.1817768 -3.2843971 -0.74290502 2.8572842e+32 0
-2.1642191 -3.278372 -0.74013203 2.8572842e+32 0
-2.1669044 -3.3030493 -0.74429411 2.8572842e+32 0
-2.1491301 -3.2965765 -0.74144047 2.8572842e+32 0
-2.1322339 -3.2912986 -0.73887199 2.8572842e+32 0
-2.1257968 -3.3021233 -0.73992729 2.8572842e+32 0
-2.1189649 -3.3123906 -0.74086016 2.8572842e+32 0
-2.1146786 -3.3267157 -0.74270159 2.8572842e+32 0
-2.1004477 -3.325402 -0.74105746 2.8572842e+32 0
-2.0914257 -3.3322937 -0.74125057 2.8572842e+32 0
-2.0752294 -3.3276923 -0.73889709 2.8572842e+32 0
-2.0632188 -3.32971 -0.73802525 2.8572842e+32 0
-2.0611646 -3.3478487 -0.74072951 2.8572842e+32 0
-2.0617661 -3.3704872 -0.7444241 2.8572842e+32 0
-2.0455639 -3.3656945 -0.74206394 2.8572842e+32 0
-2.033987 -3.368423 -0.74137342 2.8572842e+32 0
-2.0261931 -3.3774164 -0.74206799 2.8572842e+32 0
-2.0162663 -3.3828723 -0.74199039 2.8572842e+32 0
-2.0050662 -3.3861735 -0.74144727 2.8572842e+32 0
-1.999086 -3.3983161 -0.74284488 2.8572842e+32 0
-1.9865427 -3.3993125 -0.74181145 2.8572842e+32 0
-1.9706969 -3.394558 -0.73953474 2.8572842e+32 0
-1.964162 -3.4058092 -0.74075294 2.8572842e+32 0
-1.9513125 -3.4061129 -0.73959607 2.8572842e+32 0
-1.9403659 -3.4096894 -0.73915863 2.8572842e+32 0
-1.9340202 -3.4213781 -0.74048436 2.8572842e+32 0
-1.9236642 -3.4260075 -0.74028659 2.8572842e+32 0
-1.9143745 -3.4325366 -0.74050534 2.8572842e+32 0
-1.9038126 -3.4367831 -0.74023789 2.8572842e+32 0
-1.891103 -3.4371092 -0.73913431 2.8572842e+32 0
-1.8863575 -3.4519393 -0.74115443 2.8572842e+32 0
-1.8710067 -3.4473584 -0.73901314 2.8572842e+32 0
-1.8736429 -3.4760096 -0.74399763 2.8572842e+32 0
-1.8580155 -3.470866 -0.74175054 2.8572842e+32 0
-1.8529309 -3.4854078 -0.74371701 2.8572842e+32 0
-1.835968 -3.4775794 -0.74091744 2.8572842e+32 0
-1.825043 -3.4810834 -0.74054337 2.8572842e+32 0
-1.8138425 -3.4840343 -0.74005896 2.8572842e+32 0
-1.8109767 -3.5030751 -0.74299479 2.8572842e+32 0
-1.7970467 -3.5007584 -0.74140483 2.8572842e+32 0
-1.7890058 -3.5098894 -0.74224645 2.8572842e+32 0
-1.7717323 -3.5008345 -0.73925167 2.8572842e+32 0
-1.7677519 -3.5180309 -0.74180692 2.8572842e+32 0
-1.7560387 -3.519902 -0.74113411 2.8572842e+32 0
-1.7512786 -3.5357652 -0.74341124 2.8572842e+32 0
-1.7315661 -3.521378 -0.73933685 2.8572842e+32 0
-1.7303705 -3.5446398 -0.74317348 2.8572842e+32 0
-1.7144581 -3.5378015 -0.74070352 2.8572842e+32 0
-1.7031933 -3.5404508 -0.7402302 2.8572842e+32 0
-1.7004501 -3.5609119 -0.74348319 2.8572842e+32 0
-1.6876875 -3.5604672 -0.74237448 2.8572842e+32 0
-1.6715751 -3.5528235 -0.7397759 2.8572842e+32 0
-1.6664653 -3.5685537 -0.74205083 2.8572842e+32 0
-1.6560711 -3.5730476 -0.74199241 2.8572842e+32 0
-1.6356342 -3.5557058 -0.7374118 2.8572842e+32 0
-1.631741 -3.5742662 -0.74028528 2.8572842e+32 0
-1.6195428 -3.574708 -0.73940963 2.8572842e+32 0
-1.6180282 -3.5988472 -0.74343765 2.8572842e+32 0
-1.6059022 -3.5995042 -0.74261677 2.8572842e+32 0
-1.5869113 -3.5845926 -0.73859626 2.8572842e+32 0
-1.5820934 -3.6016409 -0.74116898 2.8572842e+32 0
-1.5710591 -3.6046233 -0.74085039 2.8572842e+32 0
-1.5621929 -3.6125953 -0.7415629 2.8572842e+32 0
-1.5511376 -3.6155198 -0.74124497 2.8572842e+32 0
-1.5391026 -3.616118 -0.74045759 2.8572842e+32 0
-1.5317926 -3.6278455 -0.74195439 2.8572842e+32 0
-1.5171014 -3.6220684 -0.73987806 2.8572842e+32 0
-1.5045372 -3.6212463 -0.73882365 2.8572842e+32 0
-1.5005044 -3.6410418 -0.74197942 2.8572842e+32 0
-1.4848151 -3.6325746 -0.73938119 2.8572842e+32 0
-1.4752438 -3.6389878 -0.73982042 2.8572842e+32 0
-1.4681571 -3.6516168 -0.74152696 2.8572842e+32 0
-1.4551487 -3.6495352 -0.74025184 2.8572842e+32 0
-1.4497286 -3.6665397 -0.74285275 2.8572842e+32 0
-1.4309314 -3.6496432 -0.7385931 2.8572842e+32 0
-1.4260725 -3.6682408 -0.74152422 2.8572842e+32 0
-1.410645 -3.6596694 -0.73896879 2.8572842e+32 0
-1.4018687 -3.6682839 -0.73989159 2.8572842e+32 0
-1.3962301 -3.6852601 -0.74250317 2.8572842e+32 0
-1.3881125 -3.6958628 -0.74383247 2.8572842e+32 0
-1.3735104 -3.6891649 -0.74168682 2.8572842e+32 0
-1.3526181 -3.6652336 -0.7360909 2.8572842e+32 0
-1.3473631 -3.6835563 -0.73898983 2.8572842e+32 0
-1.3404634 -3.6976018 -0.74103159 2.8572842e+32 0
-1.3265059 -3.6921873 -0.73917931 2.8572842e+32 0
-1.3204442 -3.7087817 -0.74173868 2.8572842e+32 0
-1.3074583 -3.7059846 -0.74042457 2.8572842e+32 0
-1.2956823 -3.7065275 -0.73978597 2.8572842e+32 0
-1.2830764 -3.7046149 -0.7386651 2.8572842e+32 0
-1.2761002 -3.7190042 -0.74079978 2.8572842e+32 0
-1.2646122 -3.7203228 -0.74033535 2.8572842e+32 0
-1.2535437 -3.7228436 -0.74011689 2.8572842e+32 0
-1.244925 -3.7326887 -0.74135971 2.8572842e+32 0
-1.2310762 -3.7268219 -0.73948866 2.8572842e+32 0
-1.2236371 -3.7403646 -0.74147487 2.8572842e+32 0
-1.2082894 -3.7296925 -0.73866779 2.8572842e+32 0
-1.2010294 -3.7439523 -0.74080521 2.8572842e+32 0
-1.18989 -3.7462134 -0.74057281 2.8572842e+32 0
-1.1810967 -3.7559121 -0.74181598 2.8572842e+32 0
-1.1679575 -3.7517788 -0.7403335 2.8572842e+32 0
-1.1557776 -3.7506046 -0.73944324 2.8572842e+32 0
-1.1468619 -3.7600403 -0.74065053 2.8572842e+32 0
-1.1378992 -3.7694473 -0.74185622 2.8572842e+32 0
-1.1251619 -3.7663486 -0.74060684 2.8572842e+32 0
-1.1135234 -3.7668328 -0.74006963 2.8572842e+32 0
-1.103512 -3.7728219 -0.74062008 2.8572842e+32 0
-1.0935781 -3.7791393 -0.74124008 2.8572842e+32 0
-1.0824 -3.7811794 -0.74102694 2.8572842e+32 0
-1.0700834 -3.779175 -0.74002832 2.8572842e+32 0
-1.0572217 -3.7751122 -0.73863465 2.8572842e+32 0
-1.0477101 -3.7829862 -0.73958302 2.8572842e+32 0
-1.0346253 -3.7779229 -0.73800868 2.8572842e+32 0
-1.0292239 -3.8010516 -0.74194586 2.8572842e+32 0
-1.0158681 -3.7949302 -0.74017799 2.8572842e+32 0
-1.0062883 -3.8028691 -0.7411592 2.8572842e+32 0
-0.99388975 -3.8001482 -0.74006915 2.8572842e+32 0
-0.98447001 -3.80882 -0.74120378 2.8572842e+32 0
-0.97487348 -3.8169396 -0.74223554 2.8572842e+32 0
-0.95718688 -3.7931292 -0.73706734 2.8572842e+32 0
-0.9482792 -3.8038826 -0.73862422 2.8572842e+32 0
-0.94265527 -3.8281703 -0.74281114 2.8572842e+32 0
-0.93003118 -3.8242152 -0.74152195 2.8572842e+32 0
-0.91771197 -3.8213613 -0.74045408 2.8572842e+32 0
-0.90715683 -3.8258064 -0.74080706 2.8572842e+32 0
-0.89993942 -3.8445582 -0.74393415 2.8572842e+32 0
-0.88398528 -3.8259213 -0.73983312 2.8572842e+32 0
-0.87191075 -3.8237357 -0.73892277 2.8572842e+32 0
-0.86459035 -3.8425534 -0.74207592 2.8572842e+32 0
-0.85322654 -3.8436003 -0.74180144 2.8572842e+32 0
-0.839472 -3.8336911 -0.73942024 2.8572842e+32 0
-0.82788825 -3.8334894 -0.73891932 2.8572842e+32 0
-0.81982392 -3.8497415 -0.74159473 2.8572842e+32 0
-0.80624884 -3.8401437 -0.73929638 2.8572842e+32 0
-0.79659241 -3.8491354 -0.7405836 2.8572842e+32 0
-0.78446454 -3.8462067 -0.73958319 2.8572842e+32 0
-0.77360225 -3.8494208 -0.73977065 2.8572842e+32 0
-0.76188499 -3.8483465 -0.73914027 2.8572842e+32 0
-0.75392097 -3.8664205 -0.74219245 2.8572842e+32 0
-0.73729938 -3.8398993 -0.73669165 2.8572842e+32 0
-0.73096853 -3.8669145 -0.74146843 2.8572842e+32 0
-0.71945995 -3.8668983 -0.74106574 2.8572842e+32 0
-0.70906383 -3.8728905 -0.74182045 2.8572842e+32 0
-0.69811851 -3.8759639 -0.74202168 2.8572842e+32 0
-0.6858902 -3.8718307 -0.74084997 2.8572842e+32 0
-0.67492938 -3.8747661 -0.74103737 2.8572842e+32 0
-0.66271389 -3.8704088 -0.73983669 2.8572842e+32 0
-0.65054691 -3.8661191 -0.73865628 2.8572842e+32 0
-0.64117002 -3.8784871 -0.74066412 2.8572842e+32 0
-0.62849015 -3.8708944 -0.73886615 2.8572842e+32 0
-0.61980748 -3.8880281 -0.74179345 2.8572842e+32 0
-0.60676521 -3.8778782 -0.73952115 2.8572842e+32 0
-0.59766859 -3.8929718 -0.74206883 2.8572842e+32 0
-0.58621353 -3.8929262 -0.74173594 2.8572842e+32 0
-0.57446277 -3.8908091 -0.7410149 2.8572842e+32 0
-0.56372327 -3.8955271 -0.74160182 2.8572842e+32 0
-0.5522511 -3.895206 -0.74123538 2.8572842e+32 0
-0.54071492 -3.8943429 -0.74077237 2.8572842e+32 0
-0.52958125 -3.896337 -0.74085909 2.8572842e+32 0
-0.51899976 -3.902504 -0.74174494 2.8572842e+32 0
-0.51008201 -3.9216721 -0.74510646 2.8572842e+32 0
-0.49597338 -3.9008286 -0.74087232 2.8572842e+32 0
-0.48608646 -3.9129217 -0.74290073 2.8572842e+32 0
-0.47356004 -3.9037712 -0.74090195 2.8572842e+32 0
-0.46156228 -3.8985677 -0.73965949 2.8572842e+32 0
-0.45271555 -3.9203212 -0.74353677 2.8572842e+32 0
-0.43999726 -3.90874 -0.74109733 2.8572842e+32 0
-0.42918479 -3.9138565 -0.74183047 2.8572842e+32 0
-0.41682851 -3.9047227 -0.73986912 2.8572842e+32 0
-0.40502173 -3.9003017 -0.7388078 2.8572842e+32 0
-0.39385024 -3.9018533 -0.73888421 2.8572842e+32 0
-0.3840324 -3.9172375 -0.74158543 2.8572842e+32 0
-0.37165293 -3.9065664 -0.73935992 2.8572842e+32 0
-0.36089048 -3.912689 -0.74031931 2.8572842e+32 0
-0.3495791 -3.9129965 -0.74018431 2.8572842e+32 0
-0.33853909 -3.9163969 -0.7406404 2.8572842e+32 0
-0.32676893 -3.9112263 -0.73948193 2.8572842e+32 0
-0.31772774 -3.9394526 -0.74464285 2.8572842e+32 0
-0.30423471 -3.912461 -0.73937249 2.8572842e+32 0
-0.29363763 -3.9219966 -0.74101192 2.8572842e+32 0
-0.28252107 -3.9250135 -0.74142545 2.8572842e+32 0
-0.27022156 -3.911093 -0.73864615 2.8572842e+32 0
-0.25999606 -3.927218 -0.74154729 2.8572842e+32 0
-0.24822907 -3.9203999 -0.74012214 2.8572842e+32 0
-0.23759963 -3.9316859 -0.74212074 2.8572842e+32 0
-0.2258075 -3.9238312 -0.74051261 2.8572842e+32 0
-0.2141342 -3.917253 -0.73915195 2.8572842e+32 0
-0.20370081 -3.9338186 -0.74216419 2.8572842e+32 0
-0.19190271 -3.92436 -0.74027258 2.8572842e+32 0
-0.18089554 -3.9308345 -0.74139273 2.8572842e+32 0
-0.16936041 -3.9258659 -0.74036074 2.8572842e+32 0
-0.15852724 -3.9375525 -0.74247569 2.8572842e+32 0
-0.14667337 -3.9236641 -0.73977429 2.8572842e+32 0
-0.1355807 -3.92945 -0.74078864 2.8572842e+32 0
-0.12429462 -3.9301019 -0.74084115 2.8572842e+32 0
-0.11304565 -3.9321034 -0.74115413 2.8572842e+32 0
-0.1017381 -3.9322143 -0.74111682 2.8572842e+32 0
-0.090241529 -3.9240601 -0.73952806 2.8572842e+32 0
-0.07925085 -3.9386427 -0.7422303 2.8572842e+32 0
-0.067868911 -3.9353251 -0.74156529 2.8572842e+32 0
-0.056470968 -3.9294889 -0.7404319 2.8572842e+32 0
-0.045149494 -3.927304 -0.73999268 2.8572842e+32 0
-0.034025259 -3.9464526 -0.74357921 2.8572842e+32 0
-0.022661392 -3.9429629 -0.74290633 2.8572842e+32 0
-0.011324249 -3.9416621 -0.74265206 2.8572842e+32 0
5.2146474e-06 -3.9302588 -0.74050045 2.8572842e+32 0
0.011287479 -3.9252379 -0.73955756 2.8572842e+32 0
0.022647595 -3.9387438 -0.74211144 2.8572842e+32 0
0.033810362 -3.9203212 -0.73865563 2.8572842e+32 0
0.045343887 -3.9433031 -0.74300724 2.8572842e+32 0
0.056564797 -3.9352913 -0.74152523 2.8572842e+32 0
0.067896791 -3.936336 -0.74175578 2.8572842e+32 0
0.079209588 -3.9360726 -0.74174601 2.8572842e+32 0
0.090459809 -3.9330976 -0.74123132 2.8572842e+32 0
0.10204825 -3.9437969 -0.7432999 2.8572842e+32 0
0.11351786 -3.948164 -0.74418139 2.8572842e+32 0
0.12418318 -3.9262483 -0.74011475 2.8572842e+32 0
0.13580593 -3.9356747 -0.74196219 2.8572842e+32 0
0.14677851 -3.9261978 -0.74025208 2.8572842e+32 0
0.15817316 -3.9284985 -0.74076849 2.8572842e+32 0
0.16973893 -3.9343977 -0.74196982 2.8572842e+32 0
0.18121164 -3.9374757 -0.74264544 2.8572842e+32 0
0.19227935 -3.931848 -0.74168521 2.8572842e+32 0
0.20402348 -3.9398475 -0.74330169 2.8572842e+32 0
0.214414 -3.9221807 -0.74008185 2.8572842e+32 0
0.22607338 -3.9282696 -0.74135035 2.8572842e+32 0
0.23701967 -3.921916 -0.74027681 2.8572842e+32 0
0.24850583 -3.9246056 -0.74091625 2.8572842e+32 0
0.25947663 -3.9192142 -0.74003613 2.8572842e+32 0
0.27115196 -3.9244077 -0.74116087 2.8572842e+32 0
0.2828632 -3.929621 -0.74229592 2.8572842e+32 0
0.29289809 -3.9119794 -0.73911947 2.8572842e+32 0
0.30412573 -3.9109251 -0.7390824 2.8572842e+32 0
0.31553406 -3.9121239 -0.73947728 2.8572842e+32 0
0.32867804 -3.9339511 -0.74377859 2.8572842e+32 0
0.33911353 -3.9229212 -0.7418744 2.8572842e+32 0
0.35099724 -3.9287527 -0.74316496 2.8572842e+32 0
0.36130473 -3.9170663 -0.74114776 2.8572842e+32 0
0.37441891 -3.9355302 -0.74484181 2.8572842e+32 0
0.38360503 -3.9127712 -0.74074006 2.8572842e+32 0
0.39369622 -3.900224 -0.73857588 2.8572842e+32 0
0.4057641 -3.9073498 -0.74014306 2.8572842e+32 0
0.41867793 -3.9219487 -0.74313331 2.8572842e+32 0
0.42950672 -3.9166963 -0.74236894 2.8572842e+32 0
0.44057277 -3.9137592 -0.74204922 2.8572842e+32 0
0.45243442 -3.9177957 -0.74305803 2.8572842e+32 0
0.46203843 -3.9025006 -0.74040592 2.8572842e+32 0
0.47239187 -3.8940549 -0.73905814 2.8572842e+32 0
0.4840619 -3.8965397 -0.73979074 2.8572842e+32 0
0.49667686 -3.9062786 -0.74190772 2.8572842e+32 0
0.50655425 -3.894469 -0.7399382 2.8572842e+32 0
0.51815772 -3.8960929 -0.74052668 2.8572842e+32 0
0.52836341 -3.8872995 -0.73914093 2.8572842e+32 0
0.53954196 -3.885819 -0.73915124 2.8572842e+32 0
0.55250186 -3.8969002 -0.74155807 2.8572842e+32 0
0.56157249 -3.8805919 -0.7387588 2.8572842e+32 0
0.5749777 -3.8942254 -0.74166578 2.8572842e+32 0
0.58568597 -3.8893528 -0.74105537 2.8572842e+32 0
0.59835464 -3.8973715 -0.74290782 2.8572842e+32 0
0.60608512 -3.8734641 -0.73867971 2.8572842e+32 0
0.61722487 -3.8717616 -0.73869026 2.8572842e+32 0
0.62916571 -3.8749905 -0.73964828 2.8572842e+32 0
0.64216274 -3.884428 -0.74179894 2.8572842e+32 0
0.65243304 -3.8772655 -0.74078619 2.8572842e+32 0
0.66371757 -3.8762085 -0.74094564 2.8572842e+32 0
0.67354155 -3.8667381 -0.73950237 2.8572842e+32 0
0.68635398 -3.8743889 -0.7413398 2.8572842e+32 0
0.69425625 -3.8544621 -0.73790568 2.8572842e+32 0
0.70628065 -3.857631 -0.73889792 2.8572842e+32 0
0.71909392 -3.8648739 -0.74067813 2.8572842e+32 0
0.73081046 -3.8660223 -0.74129766 2.8572842e+32 0
0.73919696 -3.8497269 -0.73857743 2.8572842e+32 0
0.75203192 -3.856678 -0.74032271 2.8572842e+32 0
0.76252651 -3.8515334 -0.73975277 2.8572842e+32 0
0.7756049 -3.859333 -0.74167597 2.8572842e+32 0
0.78564805 -3.8519571 -0.7406894 2.8572842e+32 0
0.7953276 -3.8429725 -0.73939824 2.8572842e+32 0
0.81102824 -3.8628569 -0.74366951 2.8572842e+32 0
0.81985825 -3.8498526 -0.74161655 2.8572842e+32 0
0.82761562 -3.8321776 -0.73866695 2.8572842e+32 0
0.83874547 -3.8303244 -0.73877138 2.8572842e+32 0
0.85222632 -3.8390465 -0.74092299 2.8572842e+32 0
0.86453789 -3.8422725 -0.74202216 2.8572842e+32 0
0.87431711 -3.8342419 -0.74095351 2.8572842e+32 0
0.88298458 -3.8215439 -0.73898709 2.8572842e+32 0
0.89703083 -3.832087 -0.74152136 2.8572842e+32 0
0.90739918 -3.8267834 -0.74099672 2.8572842e+32 0
0.9196611 -3.829433 -0.74201858 2.8572842e+32 0
0.92728746 -3.8128893 -0.7393263 2.8572842e+32 0
0.93759954 -3.8075953 -0.7388193 2.8572842e+32 0
0.94868052 -3.8054495 -0.73892897 2.8572842e+32 0
0.95933813 -3.8016117 -0.73871613 2.8572842e+32 0
0.97153169 -3.8038135 -0.73968351 2.8572842e+32 0
0.98446947 -3.8087761 -0.7411958 2.8572842e+32 0
0.99352252 -3.798703 -0.73978817 2.8572842e+32 0
1.0062913 -3.8028393 -0.74115396 2.8572842e+32 0
1.0202211 -3.8111513 -0.74334234 2.8572842e+32 0
1.022632 -3.7766674 -0.73718673 2.8572842e+32 0
1.0379859 -3.7901545 -0.74039859 2.8572842e+32 0
1.04812 -3.7844272 -0.7398653 2.8572842e+32 0
1.062655 -3.7944744 -0.74242359 2.8572842e+32 0
1.0734187 -3.7909162 -0.74232799 2.8572842e+32 0
1.0823053 -3.7808108 -0.74095529 2.8572842e+32 0
1.0926498 -3.7758937 -0.7406041 2.8572842e+32 0
1.102674 -3.7699196 -0.74005091 2.8572842e+32 0
1.1132956 -3.7660251 -0.7399115 2.8572842e+32 0
1.1245503 -3.7642653 -0.74019772 2.8572842e+32 0
1.1349982 -3.7598014 -0.73995841 2.8572842e+32 0
1.1452432 -3.7546976 -0.73959869 2.8572842e+32 0
1.1606534 -3.7663918 -0.74255627 2.8572842e+32 0
1.1681004 -3.7522025 -0.74041772 2.8572842e+32 0
1.1792715 -3.750073 -0.74066329 2.8572842e+32 0
1.1909904 -3.7496436 -0.74125153 2.8572842e+32 0
1.2006174 -3.7426336 -0.74054492 2.8572842e+32 0
1.2115338 -3.7396731 -0.74064511 2.8572842e+32 0
1.2181319 -3.7235031 -0.73813301 2.8572842e+32 0
1.228273 -3.7183027 -0.73779893 2.8572842e+32 0
1.2438743 -3.7295053 -0.74072814 2.8572842e+32 0
1.2529118 -3.7209344 -0.73973799 2.8572842e+32 0
1.264081 -3.7187278 -0.74001861 2.8572842e+32 0
1.2748233 -3.7152507 -0.74005276 2.8572842e+32 0
1.27952 -3.694315 -0.73661202 2.8572842e+32 0
1.2983978 -3.7142639 -0.74133074 2.8572842e+32 0
1.3038704 -3.6957836 -0.73838723 2.8572842e+32 0
1.3182135 -3.7024853 -0.74048007 2.8572842e+32 0
1.3271306 -3.6938951 -0.73952198 2.8572842e+32 0
1.3374503 -3.6892598 -0.73936051 2.8572842e+32 0
1.3509138 -3.693233 -0.74093187 2.8572842e+32 0
1.3615222 -3.6893311 -0.74093109 2.8572842e+32 0
1.3713372 -3.6832979 -0.74050802 2.8572842e+32 0
1.3893577 -3.6991482 -0.74449444 2.8572842e+32 0
1.3958449 -3.6842141 -0.74229318 2.8572842e+32 0
1.4061514 -3.6794612 -0.74214685 2.8572842e+32 0
1.4145133 -3.6696761 -0.74099016 2.8572842e+32 0
1.4235371 -3.6616905 -0.74020082 2.8572842e+32 0
1.4360607 -3.6626966 -0.74123555 2.8572842e+32 0
1.4444113 -3.6530631 -0.74012309 2.8572842e+32 0
1.4569732 -3.654083 -0.74117512 2.8572842e+32 0
1.4694594 -3.6548281 -0.74217987 2.8572842e+32 0
1.4795122 -3.6494887 -0.74195611 2.8572842e+32 0
1.4900041 -3.6452415 -0.74196029 2.8572842e+32 0
1.4996837 -3.6390228 -0.74156886 2.8572842e+32 0
1.5052655 -3.6229722 -0.73917663 2.8572842e+32 0
1.514792 -3.6165278 -0.73874706 2.8572842e+32 0
1.528718 -3.6205366 -0.74046046 2.8572842e+32 0
1.5353943 -3.6073787 -0.73866892 2.8572842e+32 0
1.5447583 -3.6006241 -0.73819196 2.8572842e+32 0
1.5587536 -3.6046152 -0.73992568 2.8572842e+32 0
1.5672458 -3.5958481 -0.73904771 2.8572842e+32 0
1.5813847 -3.6000016 -0.74083245 2.8572842e+32 0
1.5895259 -3.5904729 -0.73980874 2.8572842e+32 0
1.6013016 -3.5891666 -0.74048489 2.8572842e+32 0
1.6120523 -3.5855303 -0.74068755 2.8572842e+32 0
1.6191894 -3.5739024 -0.73924387 2.8572842e+32 0
1.6326417 -3.5762141 -0.74068958 2.8572842e+32 0
1.6417763 -3.5690334 -0.74017668 2.8572842e+32 0
1.6504726 -3.5609441 -0.73947984 2.8572842e+32 0
1.6676375 -3.5710392 -0.74256855 2.8572842e+32 0
1.6779544 -3.5663579 -0.74259496 2.8572842e+32 0
1.6802046 -3.5446568 -0.73907882 2.8572842e+32 0
1.6915802 -3.5423133 -0.7396009 2.8572842e+32 0
1.703832 -3.5417545 -0.74050367 2.8572842e+32 0
1.7087355 -3.525969 -0.73822713 2.8572842e+32 0
1.7245815 -3.5327573 -0.74068314 2.8572842e+32 0
1.7363462 -3.5310755 -0.74137384 2.8572842e+32 0
1.7404196 -3.5138178 -0.73879766 2.8572842e+32 0
1.7547604 -3.5173161 -0.74059063 2.8572842e+32 0
1.7661152 -3.5147502 -0.74111617 2.8572842e+32 0
1.7746329 -3.5065429 -0.74045807 2.8572842e+32 0
1.7841657 -3.5003707 -0.74023455 2.8572842e+32 0
1.7913603 -3.4896584 -0.73905498 2.8572842e+32 0
1.8063027 -3.4940112 -0.74107331 2.8572842e+32 0
1.8085394 -3.4738255 -0.73789144 2.8572842e+32 0
1.8255332 -3.4819958 -0.74073851 2.8572842e+32 0
1.8310161 -3.4681773 -0.73891538 2.8572842e+32 0
1.8433007 -3.4672711 -0.73984802 2.8572842e+32 0
1.8534619 -3.4623375 -0.73992902 2.8572842e+32 0
1.8652102 -3.4603431 -0.74064547 2.8572842e+32 0
1.8773969 -3.4591105 -0.74153352 2.8572842e+32 0
1.8878039 -3.4545643 -0.74171913 2.8572842e+32 0
1.8976958 -3.44907 -0.7417075 2.8572842e+32 0
1.9089135 -3.4459696 -0.7422176 2.8572842e+32 0
1.9156318 -3.4347694 -0.74098814 2.8572842e+32 0
1.9201916 -3.4198017 -0.73894674 2.8572842e+32 0
1.9407072 -3.4331868 -0.74304116 2.8572842e+32 0
1.9446007 -3.41711 -0.74076831 2.8572842e+32 0
1.9583844 -3.4184361 -0.74227303 2.8572842e+32 0
1.9644049 -3.4062097 -0.74084115 2.8572842e+32 0
1.9692196 -3.3919923 -0.73897696 2.8572842e+32 0
1.9862566 -3.3988023 -0.7417013 2.8572842e+32 0
1.9943484 -3.3902419 -0.74108106 2.8572842e+32 0
2.0101116 -3.3946736 -0.74330968 2.8572842e+32 0
2.0175841 -3.3850629 -0.74247199 2.8572842e+32 0
2.0199168 -3.3669341 -0.73976606 2.8572842e+32 0
2.0342577 -3.3688509 -0.74146885 2.8572842e+32 0
2.0386696 -3.3543308 -0.73955971 2.8572842e+32 0
2.0504436 -3.3519578 -0.74033284 2.8572842e+32 0
2.058754 -3.3439136 -0.73986 2.8572842e+32 0
2.0623033 -3.3282127 -0.73769462 2.8572842e+32 0
2.0731616 -3.324357 -0.73815769 2.8572842e+32 0
2.0944052 -3.3370214 -0.74230337 2.8572842e+32 0
2.0998847 -3.3244915 -0.74085575 2.8572842e+32 0
2.0985367 -3.3013027 -0.73702931 2.8572842e+32 0
2.1177788 -3.3105173 -0.7404424 2.8572842e+32 0
2.1381359 -3.3212709 -0.74421906 2.8572842e+32 0
2.144891 -3.3108168 -0.74325496 2.8572842e+32 0
2.1445572 -3.2895427 -0.73985982 2.8572842e+32 0
2.1491425 -3.2759557 -0.73819017 2.8572842e+32 0
2.1649666 -3.2794852 -0.74038464 2.8572842e+32 0
2.1654167 -3.2597504 -0.73733139 2.8572842e+32 0
2.1830802 -3.2659342 -0.74014634 2.8572842e+32 0
2.1934757 -3.2611585 -0.74048984 2.8572842e+32 0
2.203697 -3.2561064 -0.74077785 2.8572842e+32 0
2.2195482 -3.259306 -0.74295408 2.8572842e+32 0
2.2207191 -3.240963 -0.74022478 2.8572842e+32 0
2.2259579 -3.228667 -0.73887467 2.8572842e+32 0
2.2365649 -3.2241817 -0.73931628 2.8572842e+32 0
2.2467463 -3.219063 -0.73962033 2.8572842e+32 0
2.2588878 -3.2167194 -0.74057055 2.8572842e+32 0
2.2708461 -3.2140656 -0.74145925 2.8572842e+32 0
2.2802906 -3.2078288 -0.74152941 2.8572842e+32 0
2.2757647 -3.1820543 -0.73708034 2.8572842e+32 0
2.3005772 -3.1972859 -0.74213713 2.8572842e+32 0
2.3064888 -3.1861446 -0.74108684 2.8572842e+32 0
2.3156123 -3.1794679 -0.74107891 2.8572842e+32 0
2.3235683 -3.1711981 -0.74070501 2.8572842e+32 0
2.3277302 -3.1578002 -0.73913527 2.8572842e+32 0
2.3364608 -3.1506433 -0.73902893 2.8572842e+32 0
2.3517225 -3.1522458 -0.7409873 2.8572842e+32 0
2.3549838 -3.1377594 -0.73917013 2.8572842e+32 0
2.3747911 -3.1452794 -0.74254656 2.8572842e+32 0
2.3671305 -3.1164656 -0.7373473 2.8572842e+32 0
2.3850493 -3.1213896 -0.7401312 2.8572842e+32 0
2.400193 -3.1225636 -0.74204236 2.8572842e+32 0
2.4113183 -3.1184456 -0.74270773 2.8572842e+32 0
2.4221499 -3.1139166 -0.74328417 2.8572842e+32 0
2.4219167 -3.0952182 -0.74047941 2.8572842e+32 0
2.4321985 -3.0900166 -0.74090445 2.8572842e+32 0
2.4442375 -3.0870137 -0.74186587 2.8572842e+32 0
2.4486992 -3.0744495 -0.74053484 2.8572842e+32 0
2.4569116 -3.0666318 -0.74034971 2.8572842e+32 0
2.4613609 -3.0541537 -0.73904216 2.8572842e+32 0
2.4761925 -3.0545459 -0.74085623 2.8572842e+32 0
2.4838636 -3.0460691 -0.74052882 2.8572842e+32 0
2.4918678 -3.0380139 -0.7403087 2.8572842e+32 0
2.4994907 -3.0295074 -0.73998338 2.8572842e+32 0
2.5081325 -3.0222435 -0.73996693 2.8572842e+32 0
2.5132041 -3.0107036 -0.7389071 2.8572842e+32 0
2.5257275 -3.0080888 -0.740044 2.8572842e+32 0
2.5341325 -3.0005436 -0.7399767 2.8572842e+32 0
2.5510008 -3.0029643 -0.74237883 2.8572842e+32 0
2.5529346 -2.9877937 -0.74043941 2.8572842e+32 0
