# .PCD v0.7 - Point Cloud Data file format
VERSION 0.7
FIELDS x y z intensity ring
SIZE 4 4 4 4 2
TYPE F F F F U
COUNT 1 1 1 1 1
WIDTH 988
HEIGHT 1
VIEWPOINT 0 0 0 1 0 0 0
POINTS 988
DATA ascii
-5.9147205 4.5599651 1.8621706 4.631576e+27 19
-5.9467325 4.5574532 1.8681171 4.631576e+27 19
-5.9663243 4.5453067 1.8701599 4.631576e+27 19
-5.9683752 4.5198169 1.8667228 4.631576e+27 19
-5.9801044 4.5017123 1.8663367 4.631576e+27 19
-6.0297546 4.5119939 1.8777769 4.631576e+27 19
-6.0681305 4.5135608 1.88568 4.631576e+27 19
-6.0922003 4.5043235 1.8891287 4.631576e+27 19
-6.1423035 4.5141201 1.9006341 4.631576e+27 19
-6.1681104 4.5058393 1.9046041 4.631576e+27 19
-6.2031779 4.504169 1.9114269 4.631576e+27 19
-6.243299 4.5059524 1.919791 4.631576e+27 19
-6.2894135 4.511797 1.9299752 4.631576e+27 19
-6.3222094 4.5078568 1.9360551 4.631576e+27 19
-6.3658886 4.5114579 1.945452 4.631576e+27 19
-6.4002318 4.5082173 1.9519794 4.631576e+27 19
-6.4369388 4.5064473 1.9592159 4.631576e+27 19
-6.4863901 4.5133424 1.9703108 4.631576e+27 19
-6.5207496 4.5094886 1.9768025 4.631576e+27 19
-6.5621009 4.5102592 1.9854002 4.631576e+27 19
-6.6053677 4.5120978 1.9945588 4.631576e+27 19
-6.6483121 4.5134621 2.0036006 4.631576e+27 19
-6.6848722 4.5102668 2.0107036 4.631576e+27 19
-6.7320538 4.5139961 2.0209842 4.631576e+27 19
-6.7748504 4.5145187 2.029928 4.631576e+27 19
-6.8090701 4.5091143 2.0362895 4.631576e+27 19
-6.854723 4.5110574 2.046056 4.631576e+27 19
-6.9005427 4.5128407 2.0558527 4.631576e+27 19
-6.9557266 4.5204401 2.0684137 4.631576e+27 19
-6.988945 4.5135088 2.0744255 4.631576e+27 19
-7.1204195 4.569468 2.1095419 4.631576e+27 19
-7.1614194 4.5667715 2.1177914 4.631576e+27 19
-7.2193208 4.5745597 2.131017 4.631576e+27 19
-7.2696614 4.5772266 2.1419842 4.631576e+27 19
-7.2992735 4.5666265 2.1468329 4.631576e+27 19
-7.3644233 4.5779862 2.1621156 4.631576e+27 19
-7.3943539 4.5671782 2.1670399 4.631576e+27 19
-7.4400225 4.5658951 2.1765687 4.631576e+27 19
-7.5000215 4.5730925 2.1902668 4.631576e+27 19
-7.551455 4.5747309 2.2014382 3.4736819e+27 19
-7.624989 4.5893707 2.2190204 1.157894e+27 19
-7.8573976 4.4565458 2.2523446 4.631576e+27 19
-7.85744 4.4267683 2.2487001 4.631576e+27 19
-7.8493991 4.3925643 2.2427764 4.631576e+27 19
-7.8541765 4.3656402 2.2405469 4.631576e+27 19
-7.8298664 4.3227167 2.2300584 4.631576e+27 19
-7.8366184 4.2971005 2.2284544 4.631576e+27 19
-7.8247175 4.2613678 2.2215779 4.631576e+27 19
-7.8264394 4.2331843 2.2186031 4.631576e+27 19
-7.8281813 4.2050881 2.2156615 4.631576e+27 19
-7.8272276 4.175631 2.2119853 4.631576e+27 19
-7.8175473 4.1416464 2.2058766 4.631576e+27 19
-7.8095841 4.1087241 2.2002881 4.631576e+27 19
-7.8143687 4.0826068 2.1983209 4.631576e+27 19
-7.8060117 4.0497227 2.1926863 4.631576e+27 19
-7.801929 4.019186 2.1882856 4.631576e+27 19
-7.8039703 3.9918962 2.1856308 4.631576e+27 19
-7.7865434 3.9547865 2.1775575 4.631576e+27 19
-7.7868543 3.9268301 2.174479 4.631576e+27 19
-7.783514 3.8971248 2.1704094 4.631576e+27 19
-7.7956376 3.875211 2.170675 4.631576e+27 19
-7.76759 3.8334651 2.1597884 4.631576e+27 19
-7.77072 3.8072736 2.1576068 4.631576e+27 19
-7.7513709 3.7702045 2.1492167 4.631576e+27 19
-7.769402 3.7513988 2.1512177 4.631576e+27 19
-7.7623243 3.7205067 2.1462882 4.631576e+27 19
-7.7392678 3.682138 2.1369777 4.631576e+27 19
-7.745719 3.6579416 2.1358471 4.631576e+27 19
-7.7447815 3.6303103 2.1327026 4.631576e+27 19
-7.7424355 3.6021035 2.1291966 4.631576e+27 19
-7.7362275 3.5722022 2.1246569 4.631576e+27 19
-7.7324409 3.5435255 2.1208112 4.631576e+27 19
-7.7240324 3.5128441 2.1157269 4.631576e+27 19
-7.7288084 3.4882414 2.11428 4.631576e+27 19
-7.7239337 3.4593527 2.1102176 4.631576e+27 19
-7.7290454 3.4350047 2.1089082 4.631576e+27 19
-7.7178283 3.4034886 2.1031697 4.631576e+27 19
-7.7050557 3.3714361 2.0970395 4.631576e+27 19
-7.7034497 3.3443851 2.0939777 4.631576e+27 19
-7.7073359 3.3197765 2.0924315 4.631576e+27 19
-7.6973886 3.2892952 2.0871556 4.631576e+27 19
-7.7003183 3.2644048 2.0853972 4.631576e+27 19
-7.6864481 3.2324927 2.0791161 4.631576e+27 19
-7.7004528 3.2123661 2.0803981 4.631576e+27 19
-7.6941237 3.1837933 2.0762074 4.631576e+27 19
-7.6881499 3.1554701 2.0721393 4.631576e+27 19
-7.6858211 3.128732 2.0690794 4.631576e+27 19
-7.6799603 3.1006439 2.0650938 4.631576e+27 19
-7.6851668 3.077086 2.0641072 4.631576e+27 19
-7.672864 3.0465996 2.0584424 4.631576e+27 19
-7.6710958 3.0204015 2.0556304 4.631576e+27 19
-7.6575751 2.9896843 2.0496962 4.631576e+27 19
-7.6589999 2.9648993 2.0477879 4.631576e+27 19
-7.6476474 2.935257 2.0424886 4.631576e+27 19
-7.6690531 2.9182103 2.0459569 4.631576e+27 19
-7.2218714 2.7243125 1.9245603 4.631576e+27 19
-7.2185607 2.6993885 1.9216024 4.631576e+27 19
-7.2112551 2.6730561 1.9176044 4.631576e+27 19
-7.2125325 2.6499753 1.9159107 4.631576e+27 19
-7.2154956 2.6275499 1.9146838 4.631576e+27 19
-7.2330861 2.6104331 1.9173527 4.631576e+27 19
-7.2854548 2.6056895 1.9292412 4.631576e+27 19
-7.3273726 2.5969512 1.9383568 4.631576e+27 19
-7.3796101 2.5916138 1.9501969 4.631576e+27 19
-7.4104614 2.5785458 1.9563831 4.631576e+27 19
-7.4718208 2.575844 1.9706194 4.631576e+27 19
-7.476162 2.5533218 1.9698207 4.631576e+27 19
-7.4780173 2.529978 1.9683855 4.631576e+27 19
-7.4920335 2.5107441 1.9701672 4.631576e+27 19
-7.4733896 2.4806261 1.9633813 4.631576e+27 19
-7.4793234 2.4587522 1.9630754 4.631576e+27 19
-7.4758453 2.4338212 1.9603183 4.631576e+27 19
-7.4806938 2.4116414 1.959764 4.631576e+27 19
-7.4802504 2.3877854 1.9578416 4.631576e+27 19
-7.4814668 2.3645003 1.9563732 4.631576e+27 19
-7.4863353 2.3423934 1.9558777 4.631576e+27 19
-7.4719477 2.3143337 1.9503727 4.631576e+27 19
-7.4830008 2.2942064 1.9515285 4.631576e+27 19
-7.4840922 2.2710283 1.9501028 4.631576e+27 19
-7.4826298 2.2471173 1.9480307 4.631576e+27 19
-7.4825082 2.2236545 1.9463271 4.631576e+27 19
-7.4814463 2.1999559 1.944398 4.631576e+27 19
-7.4848704 2.1776087 1.9436532 4.631576e+27 19
-7.4837356 2.1539669 1.9417428 4.631576e+27 19
-7.4806204 2.1298068 1.9393382 4.631576e+27 19
-7.4897552 2.109154 1.9401268 4.631576e+27 19
-7.4832006 2.0841122 1.936869 4.631576e+27 19
-7.4914708 2.0632312 1.9374667 4.631576e+27 19
-7.487011 2.0388691 1.9347897 4.631576e+27 19
-7.4730768 2.0120201 1.9296864 4.631576e+27 19
-7.4838943 1.9918802 1.9309934 4.631576e+27 19
-7.4781075 1.9673406 1.9280331 4.631576e+27 19
-7.4926624 1.9481604 1.9303341 4.631576e+27 19
-7.4852648 1.9232849 1.9269961 4.631576e+27 19
-7.486258 1.9006187 1.9258375 4.631576e+27 19
-7.4874554 1.8780311 1.924749 4.631576e+27 19
-7.4906545 1.8559651 1.9241921 4.631576e+27 19
-7.4729185 1.828789 1.9182779 4.631576e+27 19
-7.5008307 1.812785 1.9240974 4.631576e+27 19
-7.4872026 1.7867299 1.9192762 4.631576e+27 19
-7.4864779 1.7638289 1.9177829 4.631576e+27 19
-7.4814873 1.7399708 1.9152154 4.631576e+27 19
-7.4814057 1.7173002 1.9139231 4.631576e+27 19
-7.4896832 1.6965533 1.9147853 4.631576e+27 19
-7.4794755 1.6716545 1.9109393 4.631576e+27 19
-7.4812317 1.6494842 1.9101689 4.631576e+27 19
-7.4833841 1.627418 1.9095162 4.631576e+27 19
-7.4819584 1.6045996 1.9079677 4.631576e+27 19
-7.497108 1.5853225 1.9106611 4.631576e+27 19
-7.4823728 1.5597522 1.9057554 4.631576e+27 19
-7.4875684 1.5383921 1.9059446 4.631576e+27 19
-7.4844613 1.5153463 1.9040371 4.631576e+27 19
-7.471806 1.4904405 1.89972 4.631576e+27 19
-7.4880967 1.4713236 1.9027787 4.631576e+27 19
-7.4842033 1.4482288 1.9007238 4.631576e+27 19
-7.4896078 1.4269537 1.9010469 4.631576e+27 19
-7.4849281 1.4037795 1.898827 4.631576e+27 19
-7.5057783 1.3853693 1.9030985 4.631576e+27 19
-7.4895587 1.3601269 1.8979869 4.631576e+27 19
-7.486167 1.3372954 1.8961455 4.631576e+27 19
-7.4962015 1.3168657 1.8977206 4.631576e+27 19
-7.4892001 1.2934564 1.894999 4.631576e+27 19
-7.4792886 1.2696167 1.89156 4.631576e+27 19
-7.4856086 1.2485645 1.8922429 4.631576e+27 19
-7.4968576 1.2283038 1.8941861 4.631576e+27 19
-7.4846892 1.2042298 1.8902293 4.631576e+27 19
-7.4864898 1.1824543 1.8898178 4.631576e+27 19
-7.483356 1.1599234 1.8881774 4.631576e+27 19
-7.4759746 1.1367848 1.8854828 4.631576e+27 19
-7.4862094 1.1163356 1.887247 4.631576e+27 19
-7.5033627 1.0968565 1.8907686 4.631576e+27 19
-7.4965162 1.0738573 1.8882579 4.631576e+27 19
-7.4818377 1.0498176 1.8837928 4.631576e+27 19
-7.4871244 1.0286243 1.8843716 4.631576e+27 19
-7.4858527 1.0065355 1.8833157 4.631576e+27 19
-7.4881811 0.98494482 1.8831815 4.631576e+27 19
-7.4867911 0.9628787 1.882128 4.631576e+27 19
-7.4938068 0.94189346 1.8832034 4.631576e+27 19
-7.4895687 0.91950136 1.8814664 4.631576e+27 19
-7.4824715 0.89680684 1.8790282 4.631576e+27 19
-7.493608 0.87630087 1.8811846 4.631576e+27 19
-7.4914131 0.85422456 1.8800094 4.631576e+27 19
-7.4845653 0.83165836 1.8776833 4.631576e+27 19
-7.4838428 0.80980879 1.8769104 4.631576e+27 19
-7.4929347 0.78901029 1.8786141 4.631576e+27 19
-7.4986978 0.76783127 1.8794978 4.631576e+27 19
-7.4930949 0.74550086 1.8775487 4.631576e+27 19
-7.4886127 0.72332364 1.8758968 4.631576e+27 19
-7.480639 0.70085734 1.873387 4.631576e+27 19
-7.5011425 0.68103445 1.8780239 4.631576e+27 19
-7.4953899 0.65879631 1.8761017 4.631576e+27 19
-7.4876671 0.63643503 1.8737031 4.631576e+27 19
-7.4885573 0.61483622 1.8734759 4.631576e+27 19
-7.4798245 0.59248024 1.8708574 4.631576e+27 19
-7.4887352 0.57153112 1.8726674 4.631576e+27 19
-7.4966698 0.55046833 1.8742483 4.631576e+27 19
-7.4911509 0.52841985 1.8724811 4.631576e+27 19
-7.4968867 0.50717336 1.8735427 4.631576e+27 19
-7.5113621 0.48646823 1.8768029 4.631576e+27 19
-7.5039806 0.46433511 1.8746173 4.631576e+27 19
-7.49716 0.44228542 1.8725883 4.631576e+27 19
-7.4832873 0.41988665 1.868814 4.631576e+27 19
-7.4874015 0.39853227 1.8695476 4.631576e+27 19
-7.4972706 0.3774505 1.8717332 4.631576e+27 19
-7.473279 0.35471094 1.8654814 4.631576e+27 19
-7.5005445 0.33440071 1.8720398 4.631576e+27 19
-7.5027208 0.31289265 1.8723507 4.631576e+27 19
-7.5030785 0.29130661 1.8722233 4.631576e+27 19
-7.4912057 0.26928374 1.8690599 4.631576e+27 19
-7.5021095 0.24808681 1.8715948 4.631576e+27 19
-7.4937272 0.22624896 1.8693335 4.631576e+27 19
-7.4957399 0.20474704 1.8696811 4.631576e+27 19
-7.5055666 0.18342789 1.8719931 4.631576e+27 19
-7.4932122 0.16157694 1.8687881 4.631576e+27 19
-7.4851723 0.13988036 1.8666749 4.631576e+27 19
-7.5082378 0.11872417 1.8723342 4.631576e+27 19
-7.4880567 0.096877806 1.8672246 4.631576e+27 19
-7.5067568 0.075540341 1.8718258 4.631576e+27 19
-7.4849296 0.05380528 1.8663368 4.631576e+27 19
-7.503056 0.032368958 1.8708256 4.631576e+27 19
-7.4948926 0.010791113 1.8687748 4.631576e+27 19
-7.4716806 1.9826775e-05 1.8629851 4.631576e+27 19
-7.4972963 -0.010794573 1.6850635 4.631576e+27 18
-7.5030737 -0.032369033 1.6863759 4.631576e+27 18
-7.4945025 -0.053874098 1.6844773 4.631576e+27 18
-7.4823966 -0.075295202 1.6817981 4.631576e+27 18
-7.4921236 -0.096930422 1.6840401 4.631576e+27 18
-7.5031323 -0.11864344 1.6865842 4.631576e+27 18
-7.5026946 -0.14020781 1.6865695 4.631576e+27 18
-7.4985948 -0.16169301 1.6857454 4.631576e+27 18
-7.4900222 -0.18304799 1.6839294 4.631576e+27 18
-7.5019603 -0.20491695 1.686739 4.631576e+27 18
-7.5027509 -0.22652142 1.6870561 4.631576e+27 18
-7.4986143 -0.24797124 1.6862793 4.631576e+27 18
-7.491262 -0.26928574 1.684793 4.631576e+27 18
-7.4875169 -0.29070243 1.6841316 4.631576e+27 18
-7.4896755 -0.3123486 1.6848121 4.631576e+27 18
-7.4958191 -0.33419004 1.6864032 4.631576e+27 18
-7.498487 -0.35590741 1.6872267 4.631576e+27 18
-7.5026145 -0.37771955 1.6883926 4.631576e+27 18
-7.5177994 -0.40015027 1.6920618 4.631576e+27 18
-7.5027194 -0.420977 1.688933 4.631576e+27 18
-7.4908085 -0.44191068 1.6865307 4.631576e+27 18
-7.5054193 -0.46442413 1.6901138 4.631576e+27 18
-7.5123615 -0.48653296 1.6919851 4.631576e+27 18
-7.4993196 -0.50733799 1.6893691 4.631576e+27 18
-7.4940057 -0.5286212 1.6885073 4.631576e+27 18
-7.5035129 -0.55097079 1.6909993 4.631576e+27 18
-7.4958014 -0.57207042 1.689625 4.631576e+27 18
-7.5040975 -0.59440291 1.6918732 4.631576e+27 18
-7.4989781 -0.61569184 1.691111 4.631576e+27 18
-7.507709 -0.63813859 1.6934865 4.631576e+27 18
-7.5004992 -0.65924543 1.6922807 4.631576e+27 18
-7.4993067 -0.68086779 1.6924461 4.631576e+27 18
-7.4923387 -0.70195353 1.691322 4.631576e+27 18
-7.4926543 -0.72371405 1.6918558 4.631576e+27 18
-7.5090427 -0.74708754 1.6960342 4.631576e+27 18
-7.5081978 -0.76880407 1.6963354 4.631576e+27 18
-7.5098362 -0.79079002 1.6972122 4.631576e+27 18
-7.5043778 -0.81203079 1.6964991 4.631576e+27 18
-7.487946 -0.83203405 1.693318 4.631576e+27 18
-7.5049829 -0.85577196 1.6977199 4.631576e+27 18
-7.5048494 -0.87761545 1.6982534 4.631576e+27 18
-7.4969649 -0.89854389 1.6970465 4.631576e+27 18
-7.4973598 -0.9204579 1.6977278 4.631576e+27 18
-7.499907 -0.94266015 1.6989112 4.631576e+27 18
-7.4156785 -0.95373291 1.6804453 4.631576e+27 18
-7.3689475 -0.96926159 1.6704803 4.631576e+27 18
-7.3036437 -0.98203605 1.6563094 4.631576e+27 18
-7.2342958 -0.99388921 1.6412239 4.631576e+27 18
-7.2340026 -1.0150424 1.6418124 4.631576e+27 18
-7.2440052 -1.0376858 1.6447527 4.631576e+27 18
-7.2332249 -1.0573673 1.6429883 4.631576e+27 18
-7.2423563 -1.0799725 1.6457609 4.631576e+27 18
-7.2441802 -1.1015385 1.646888 4.631576e+27 18
-7.2987051 -1.1313025 1.6600161 4.631576e+27 18
-7.2922578 -1.1517763 1.6592957 4.631576e+27 18
-7.2987165 -1.1743083 1.6615266 4.631576e+27 18
-7.3105512 -1.1977788 1.6649975 4.631576e+27 18
-7.3081708 -1.2189687 1.6652464 4.631576e+27 18
-7.3082204 -1.2405777 1.6660633 4.631576e+27 18
-7.3102469 -1.2625495 1.6673458 4.631576e+27 18
-7.3217258 -1.2862153 1.6708002 4.631576e+27 18
-7.3034387 -1.3046536 1.6674759 4.631576e+27 18
-7.3036342 -1.3263624 1.6683841 4.631576e+27 18
-7.3252678 -1.3520517 1.6742067 4.631576e+27 18
-7.3033957 -1.3697336 1.6701008 4.631576e+27 18
-7.3309112 -1.3967181 1.6773039 4.631576e+27 18
-7.3206806 -1.4165865 1.6758878 4.631576e+27 18
-7.3054094 -1.4354275 1.6733295 4.631576e+27 18
-7.322782 -1.4607139 1.6782634 4.631576e+27 18
-7.3163695 -1.4813133 1.6777626 4.631576e+27 18
-7.3259945 -1.5051951 1.6809551 4.631576e+27 18
-7.3218446 -1.526289 1.6810025 4.631576e+27 18
-7.3256717 -1.5490711 1.6828965 4.631576e+27 18
-7.3233991 -1.5705947 1.6834044 4.631576e+27 18
-7.3418698 -1.5966427 1.6886983 4.631576e+27 18
-7.3297939 -1.6160947 1.6869822 4.631576e+27 18
-7.3371086 -1.6398357 1.6897434 4.631576e+27 18
-7.346035 -1.6640143 1.6928937 4.631576e+27 18
-7.3305869 -1.6826807 1.6904413 4.631576e+27 18
-7.3454008 -1.7083212 1.6949826 4.631576e+27 18
-7.3440747 -1.7302784 1.6958172 4.631576e+27 18
-7.3477378 -1.7534484 1.6978198 4.631576e+27 18
-7.3520551 -1.7768294 1.6999905 4.631576e+27 18
-7.3478703 -1.798187 1.7002109 4.631576e+27 18
-7.3349886 -1.8173957 1.698432 4.631576e+27 18
-7.3508091 -1.843757 1.7033153 4.631576e+27 18
-7.3514156 -1.8663847 1.7046919 4.631576e+27 18
-7.3507013 -1.8887098 1.705778 4.631576e+27 18
-7.3547363 -1.9122984 1.7079828 4.631576e+27 18
-7.3579874 -1.9357394 1.7100228 4.631576e+27 18
-7.3581972 -1.958425 1.7113727 4.631576e+27 18
-7.3426709 -1.97691 1.709076 4.631576e+27 18
-7.3656335 -2.0058155 1.7157557 4.631576e+27 18
-7.370966 -2.0300429 1.7183499 4.631576e+27 18
-7.3685536 -2.0521824 1.7191557 4.631576e+27 18
-7.3672719 -2.074662 1.7202408 4.631576e+27 18
-7.3718448 -2.0988374 1.72271 4.631576e+27 18
-7.3819914 -2.1246829 1.7265011 4.631576e+27 18
-7.3886151 -2.1496046 1.7294883 4.631576e+27 18
-7.3850121 -2.1715989 1.7300987 4.631576e+27 18
-7.391161 -2.1965079 1.7330111 4.631576e+27 18
-7.3879538 -2.2186852 1.7337472 4.631576e+27 18
-7.3995223 -2.2453659 1.7379694 4.631576e+27 18
-7.3964691 -2.2676768 1.738776 4.631576e+27 18
-7.395967 -2.2907999 1.7401987 4.631576e+27 18
-7.3936067 -2.3133795 1.7412007 4.631576e+27 18
-7.3878655 -2.334918 1.7414218 4.631576e+27 18
-7.3989124 -2.3618214 1.7456187 4.631576e+27 18
-7.3960843 -2.3843646 1.7465612 4.631576e+27 18
-7.3968086 -2.4080904 1.7483596 4.631576e+27 18
-7.4100184 -2.4359689 1.7531296 4.631576e+27 18
-7.4213519 -2.4633534 1.7574788 4.631576e+27 18
-7.4053512 -2.4816952 1.7553717 4.631576e+27 18
-7.4115539 -2.5074918 1.758543 4.631576e+27 18
-7.4109445 -2.5310483 1.7601173 4.631576e+27 18
-7.42345 -2.5591686 1.7648271 4.631576e+27 18
-7.4252667 -2.5836973 1.7670172 4.631576e+27 18
-7.426682 -2.6081448 1.7691307 4.631576e+27 18
-7.4298358 -2.633266 1.7716776 4.631576e+27 18
-7.4067888 -2.6490855 1.7679904 4.631576e+27 18
-7.4228239 -2.67891 1.7736486 4.631576e+27 18
-7.4383669 -2.7087092 1.7792155 4.631576e+27 18
-7.4376812 -2.732698 1.7809229 4.631576e+27 18
-7.439476 -2.7576528 1.7832432 4.631576e+27 18
-7.4559555 -2.7881625 1.789107 4.631576e+27 18
-7.4374075 -2.8056192 1.7865838 4.631576e+27 18
-7.4504871 -2.835042 1.7916758 4.631576e+27 18
-7.4597158 -2.8631268 1.7958667 4.631576e+27 18
-7.4568963 -2.8866622 1.7971779 4.631576e+27 18
-7.4560719 -2.9110131 1.7989883 4.631576e+27 18
-7.4531364 -2.9345827 1.8003079 4.631576e+27 18
-7.4766765 -2.9687011 1.8080475 4.631576e+27 18
-7.4669657 -2.9897196 1.8077699 4.631576e+27 18
-7.4759393 -3.0182743 1.8120353 4.631576e+27 18
-7.4794121 -3.0447075 1.8149908 4.631576e+27 18
-7.4811726 -3.0705199 1.8175521 4.631576e+27 18
-7.4740801 -3.0927401 1.8179811 4.631576e+27 18
-7.4850664 -3.1225142 1.8228289 4.631576e+27 18
-7.4897723 -3.1497819 1.8261721 4.631576e+27 18
-7.4939027 -3.1768987 1.829398 4.631576e+27 18
-7.5045218 -3.2068782 1.8342329 4.631576e+27 18
-7.4920807 -3.2270598 1.8334517 4.631576e+27 18
-7.5126829 -3.2615654 1.84078 4.631576e+27 18
-7.507391 -3.2849457 1.8417892 4.631576e+27 18
-7.5149808 -3.3140347 1.8459804 4.631576e+27 18
-7.5189357 -3.3416262 1.8493037 4.631576e+27 18
-7.523634 -3.3696437 1.8528336 4.631576e+27 18
-7.5235438 -3.3955994 1.8552073 4.631576e+27 18
-7.5342956 -3.4265528 1.8602796 4.631576e+27 18
-7.525919 -3.4488833 1.8606513 4.631576e+27 18
-7.5257158 -3.4749985 1.8630627 4.631576e+27 18
-7.5442348 -3.5098922 1.8701371 4.631576e+27 18
-7.5421104 -3.5353098 1.8721217 4.631576e+27 18
-7.5513835 -3.5661659 1.87696 4.631576e+27 18
-7.5486636 -3.5914536 1.8788421 4.631576e+27 18
-7.5499058 -3.6186938 1.8817322 4.631576e+27 18
-7.5443959 -3.642756 1.8829608 4.631576e+27 18
-7.5546284 -3.6745105 1.8881429 4.631576e+27 18
-7.5544415 -3.701308 1.8907473 4.631576e+27 18
-7.567173 -3.7345552 1.8966125 4.631576e+27 18
-7.5634832 -3.7598071 1.8983884 4.631576e+27 18
-7.5841279 -3.7972941 1.9063017 4.631576e+27 18
-7.5709329 -3.8179431 1.9057356 4.631576e+27 18
-7.5801921 -3.8499806 1.9108438 4.631576e+27 18
-7.5884247 -3.88164 1.9157238 4.631576e+27 18
-7.6035223 -3.9169765 1.9223695 4.631576e+27 18
-7.5923905 -3.9388969 1.9224097 4.631576e+27 18
-7.6079845 -3.9747815 1.9292427 3.4736819e+27 18
-7.6155586 -4.1758857 1.9520767 6.8663625e-44 18
-7.5731983 -4.181015 1.944291 6.8663625e-44 18
-7.5147924 -4.1769981 1.9323707 6.8663625e-44 18
-7.4762502 -4.1837478 1.9255439 6.8663625e-44 18
-7.4132857 -4.1765385 1.9124112 6.8663625e-44 18
-7.3721447 -4.1813207 1.9048904 6.8663625e-44 18
-7.33428 -4.1877527 1.898209 6.8663625e-44 18
-7.2778864 -4.1833372 1.8867177 6.8663625e-44 18
-7.236752 -4.1874118 1.8791665 6.8663625e-44 18
-7.1896853 -4.187808 1.8700626 6.8663625e-44 18
-7.1477251 -4.190928 1.8622742 6.8663625e-44 18
-7.0996885 -4.1902308 1.8528888 6.8663625e-44 18
-7.0554338 -4.1915016 1.8444757 6.8663625e-44 18
-6.9934926 -4.1819458 1.8314176 6.8663625e-44 18
-6.9588432 -4.188427 1.8254888 6.8663625e-44 18
-6.9122605 -4.1875019 1.8164188 6.8663625e-44 18
-6.8722382 -4.1903052 1.8090591 6.8663625e-44 18
-6.8343873 -4.1942205 1.8022614 6.8663625e-44 18
-6.7955484 -4.1973214 1.7951933 6.8663625e-44 18
-6.7401562 -4.1899199 1.7837343 6.8663625e-44 18
-6.6951175 -4.1886497 1.7749939 6.8663625e-44 18
-6.6598802 -4.1932874 1.7688401 6.8663625e-44 18
-6.6209822 -4.1954193 1.7617044 6.8663625e-44 18
-6.5792036 -4.195498 1.7537894 6.8663625e-44 18
-6.5411563 -4.1977305 1.7468563 6.8663625e-44 18
-6.4999862 -4.1977358 1.7390765 6.8663625e-44 18
-6.455265 -4.1951966 1.7303305 6.8663625e-44 18
-6.4200101 -4.1985803 1.724108 6.8663625e-44 18
-6.3644443 -4.1884074 1.7124116 6.8663625e-44 18
-6.3396378 -4.1982455 1.7089769 6.8663625e-44 18
-6.2981696 -4.1968756 1.701043 6.8663625e-44 18
-6.2568064 -4.1953321 1.6931213 6.8663625e-44 18
-6.2164917 -4.1942515 1.6854674 6.8663625e-44 18
-6.1852484 -4.1990933 1.6802619 6.8663625e-44 18
-6.1497941 -4.2008972 1.6739037 6.8663625e-44 18
-6.1173158 -4.2045498 1.6683459 6.8663625e-44 18
-6.0728297 -4.1997252 1.6594987 6.8663625e-44 18
-6.0290051 -4.195086 1.6508112 6.8663625e-44 18
-5.9973483 -4.1986942 1.6454408 6.8663625e-44 18
-5.9561353 -4.1954031 1.6374353 6.8663625e-44 18
-5.928957 -4.201808 1.6332771 6.8663625e-44 18
-5.8873191 -4.1977715 1.6251239 6.8663625e-44 18
-5.8537321 -4.199255 1.6191777 6.8663625e-44 18
-5.8219509 -4.2018542 1.6137208 6.8663625e-44 18
-5.7736702 -4.1923008 1.6036717 6.8663625e-44 18
-5.7431664 -4.1954155 1.598542 6.8663625e-44 18
-5.7038479 -4.1918893 1.5909452 6.8663625e-44 18
-5.6790538 -4.1988602 1.5873891 6.8663625e-44 18
-5.6590929 -4.2093129 1.5851851 6.8663625e-44 18
-5.6148701 -4.2015409 1.5761739 6.8663625e-44 18
-5.5765715 -4.1979399 1.5688035 6.8663625e-44 18
-5.5481386 -4.2015743 1.5641958 6.8663625e-44 18
-5.5124087 -4.1995015 1.557519 6.8663625e-44 18
-5.4737387 -4.1949606 1.5499933 6.8663625e-44 18
-5.2633843 -4.057816 1.493724 6.8663625e-44 18
-5.2362256 -4.0609274 1.4893229 6.8663625e-44 18
-5.2062421 -4.0616922 1.4841092 6.8663625e-44 18
-5.1665998 -4.0547071 1.4761246 6.8663625e-44 18
-5.1425953 -4.0598078 1.4725943 6.8663625e-44 18
-5.1150069 -4.0619473 1.4680315 6.8663625e-44 18
-5.0757723 -4.0546346 1.4601097 6.8663625e-44 18
-5.0547414 -4.0616894 1.4574122 6.8663625e-44 18
-5.034842 -4.0695701 1.4550413 6.8663625e-44 18
-4.9946733 -4.0608926 1.4468 6.8663625e-44 18
-4.9543495 -4.0518169 1.4384871 6.8663625e-44 18
-4.9412508 -4.0648618 1.4380702 6.8663625e-44 18
-4.9192452 -4.0705233 1.435065 6.8663625e-44 18
-4.880465 -4.0621233 1.427152 6.8663625e-44 18
-4.8525815 -4.062582 1.422407 6.8663625e-44 18
-4.8300271 -4.0673695 1.4192168 6.8663625e-44 18
-4.8321233 -4.0929308 1.4232836 6.8663625e-44 18
-4.814611 -4.1019225 1.4215922 6.8663625e-44 18
-4.8136754 -4.1250625 1.424811 6.8663625e-44 18
-4.7974734 -4.1351533 1.4235275 6.8663625e-44 18
-4.7782388 -4.142571 1.4213473 6.8663625e-44 18
-4.7722974 -4.1615071 1.4231321 6.8663625e-44 18
-4.7636008 -4.1780877 1.4241141 6.8663625e-44 18
-4.7460313 -4.1868744 1.4224534 6.8663625e-44 18
-4.7369161 -4.2031059 1.4233364 6.8663625e-44 18
-4.7209396 -4.2132444 1.4221687 6.8663625e-44 18
-4.6827741 -4.2034259 1.4143053 6.8663625e-44 18
-4.6520743 -4.2000761 1.4086735 6.8663625e-44 18
-4.6362319 -4.2100244 1.4075347 6.8663625e-44 18
-4.612649 -4.2128634 1.4040456 6.8663625e-44 18
-4.575036 -4.202693 1.3962678 6.8663625e-44 18
-4.5518708 -4.2056007 1.3928813 6.8663625e-44 18
-4.5260782 -4.2059488 1.3886822 6.8663625e-44 18
-4.4992213 -4.2051558 1.3841448 6.8663625e-44 18
-4.4710512 -4.2029686 1.3791894 6.8663625e-44 18
-4.453896 -4.2110219 1.3776255 6.8663625e-44 18
-4.4282036 -4.2109017 1.3734164 6.8663625e-44 18
-4.4024434 -4.2105684 1.3691748 6.8663625e-44 18
-4.3816829 -4.2148933 1.3664802 6.8663625e-44 18
-4.3452039 -4.2039156 1.3588667 6.8663625e-44 18
-4.3284788 -4.2118883 1.3574165 6.8663625e-44 18
-4.2988768 -4.2072067 1.35192 6.8663625e-44 18
-4.281847 -4.2147036 1.3503686 6.8663625e-44 18
-4.2554007 -4.212822 1.3458414 6.8663625e-44 18
-4.2314119 -4.2132244 1.342079 6.8663625e-44 18
-4.1964469 -4.2024989 1.3348149 6.8663625e-44 18
-4.1855164 -4.2157178 1.3351868 6.8663625e-44 18
-4.1604762 -4.2146568 1.3310579 6.8663625e-44 18
-4.1268997 -4.2047482 1.3241769 6.8663625e-44 18
-4.1077046 -4.2093248 1.3218945 6.8663625e-44 18
-4.0973682 -4.2229476 1.3224688 6.8663625e-44 18
-4.0660124 -4.2148037 1.3162531 6.8663625e-44 18
-4.0423265 -4.2144265 1.3125014 6.8663625e-44 18
-4.0108533 -4.2057452 1.3062021 6.8663625e-44 18
-3.9923756 -4.210535 1.3041203 6.8663625e-44 18
-3.9777331 -4.219316 1.3032935 6.8663625e-44 18
-3.9535716 -4.2179103 1.2993438 6.8663625e-44 18
-3.9354289 -4.222815 1.2973648 6.8663625e-44 18
-3.9067969 -4.2163258 1.2919159 6.8663625e-44 18
-3.8823071 -4.2141266 1.2878175 6.8663625e-44 18
-3.8588231 -4.2128711 1.284039 6.8663625e-44 18
-3.8458614 -4.2230258 1.2837597 6.8663625e-44 18
-3.8213949 -4.2204642 1.2796367 6.8663625e-44 18
-3.7853589 -4.2048936 1.2716116 6.8663625e-44 18
-3.7690508 -4.2110567 1.2701941 6.8663625e-44 18
-3.7612588 -4.2267356 1.271657 6.8663625e-44 18
-3.7341845 -4.2206764 1.2665997 6.8663625e-44 18
-3.6941509 -4.1996889 1.2571099 6.8663625e-44 18
-3.6875873 -4.2166047 1.2589954 6.8663625e-44 18
-3.6643589 -4.2144275 1.2551955 6.8663625e-44 18
-3.6409297 -4.2118697 1.2513117 6.8663625e-44 18
-3.6272166 -4.2204652 1.2507627 6.8663625e-44 18
-3.605557 -4.219739 1.2474711 6.8663625e-44 18
-3.5932283 -4.229867 1.2474068 6.8663625e-44 18
-3.5620487 -4.2176719 1.240786 6.8663625e-44 18
-3.5375957 -4.2132254 1.2364814 6.8663625e-44 18
-3.5270298 -4.2252431 1.237028 6.8663625e-44 18
-3.4932806 -4.2093477 1.2294297 6.8663625e-44 18
-3.4693103 -4.2049999 1.2252421 6.8663625e-44 18
-3.4607806 -4.2193079 1.2265077 6.8663625e-44 18
-3.4501474 -4.2310877 1.2270442 6.8663625e-44 18
-3.4179571 -4.2162971 1.2199008 6.8663625e-44 18
-3.3999836 -4.2188568 1.2178088 6.8663625e-44 18
-3.3803055 -4.219203 1.2150992 6.8663625e-44 18
-3.3481555 -4.2037792 1.2078807 6.8663625e-44 18
-3.3398404 -4.2181616 1.20925 6.8663625e-44 18
-3.3227963 -4.2215109 1.2074672 6.8663625e-44 18
-3.3030088 -4.2212801 1.2046807 6.8663625e-44 18
-3.2834585 -4.2212381 1.2019705 6.8663625e-44 18
-3.270642 -4.2297921 1.2017243 6.8663625e-44 18
-3.24156 -4.2171745 1.1954876 6.8663625e-44 18
-3.2182384 -4.2118335 1.1913463 6.8663625e-44 18
-3.2028348 -4.2167425 1.1901259 6.8663625e-44 18
-3.1868412 -4.220818 1.188686 6.8663625e-44 18
-3.1707451 -4.2246962 1.1872067 6.8663625e-44 18
-3.147881 -4.219439 1.1831819 6.8663625e-44 18
-3.1264329 -4.215919 1.1796701 6.8663625e-44 18
-3.1105652 -4.2198181 1.1782545 6.8663625e-44 18
-3.0939798 -4.2226768 1.1765647 6.8663625e-44 18
-3.0688882 -4.2137823 1.1716238 6.8663625e-44 18
-3.0595453 -4.2264276 1.1726899 6.8663625e-44 18
-3.0284762 -4.2089257 1.1654136 6.8663625e-44 18
-3.0279582 -4.2338214 1.1698924 6.8663625e-44 18
-2.9859569 -4.2005577 1.1583246 6.8663625e-44 18
-2.9619932 -4.1923118 1.1536982 6.8663625e-44 18
-2.9474294 -4.1972451 1.1527199 6.8663625e-44 18
-2.932519 -4.2016387 1.1516068 6.8663625e-44 18
-2.9157424 -4.2032924 1.1497582 6.8663625e-44 18
-2.8915229 -4.1940675 1.1449567 6.8663625e-44 18
-2.8763249 -4.1977916 1.1437117 6.8663625e-44 18
-2.8484173 -4.1827955 1.1373906 6.8663625e-44 18
-2.8446894 -4.203239 1.1407216 6.8663625e-44 18
-2.8256037 -4.2010012 1.1379055 6.8663625e-44 18
-2.787024 -4.1694708 1.1271905 6.8663625e-44 18
-2.7777925 -4.1816258 1.1283133 6.8663625e-44 18
-2.7578323 -4.1775808 1.1250784 6.8663625e-44 18
-2.745101 -4.1844044 1.1247865 6.8663625e-44 18
-2.7224956 -4.1760683 1.1204376 6.8663625e-44 18
-2.7134144 -4.1884041 1.1216502 6.8663625e-44 18
-2.6929431 -4.1831045 1.1181536 6.8663625e-44 18
-2.6750352 -4.1816459 1.1157038 6.8663625e-44 18
-2.6619313 -4.1876287 1.115254 6.8663625e-44 18
-2.6309452 -4.1652789 1.1072832 6.8663625e-44 18
-2.6230927 -4.1794052 1.1090297 6.8663625e-44 18
-2.6055875 -4.1781373 1.1067014 6.8663625e-44 18
-2.5887878 -4.1778955 1.1046618 6.8663625e-44 18
-2.574693 -4.1819477 1.1037719 6.8663625e-44 18
-2.5519857 -4.1718774 1.0991734 6.8663625e-44 18
-2.5361588 -4.1729012 1.0975181 6.8663625e-44 18
-2.5197787 -4.1729274 1.0956156 6.8663625e-44 18
-2.5110836 -4.1856694 1.0970615 6.8663625e-44 18
-2.4875107 -4.1735215 1.0919991 6.8663625e-44 18
-2.4779305 -4.1847515 1.0930693 6.8663625e-44 18
-2.4564774 -4.1758518 1.0888959 6.8663625e-44 18
-2.4475358 -4.1881499 1.090264 6.8663625e-44 18
-2.4257789 -4.1784439 1.0859177 6.8663625e-44 18
-2.4048598 -4.1699686 1.0819141 6.8663625e-44 18
-2.3905678 -4.1728549 1.0808758 6.8663625e-44 18
-2.370754 -4.1659846 1.0773268 6.8663625e-44 18
-2.3645897 -4.1830773 1.0799848 6.8663625e-44 18
-2.342572 -4.1720738 1.0754012 6.8663625e-44 18
-2.3363972 -4.1892371 1.0780897 6.8663625e-44 18
-2.3319969 -4.2097459 1.0816382 6.8663625e-44 18
-2.3291395 -4.2332473 1.085952 6.8663625e-44 18
-2.3069506 -4.2216034 1.0812595 6.8663625e-44 18
-2.2963817 -4.2311182 1.0820014 6.8663625e-44 18
-2.2775192 -4.2252865 1.0788317 6.8663625e-44 18
-2.2602074 -4.2221808 1.0763755 6.8663625e-44 18
-2.2431896 -4.2194939 1.0740423 6.8663625e-44 18
-2.2305186 -4.2249131 1.0737855 6.8663625e-44 18
-2.213135 -4.2213292 1.0712535 6.8663625e-44 18
-2.2054081 -4.2361546 1.0734026 6.8663625e-44 18
-2.1933284 -4.2426796 1.0734541 6.8663625e-44 18
-2.1721754 -4.2315326 1.0690497 6.8663625e-44 18
-2.1556926 -4.2293 1.0669159 6.8663625e-44 18
-2.150214 -4.2486911 1.0702441 6.8663625e-44 18
-2.1203072 -4.2196569 1.0613908 6.8663625e-44 18
-2.1084011 -4.2261963 1.061507 6.8663625e-44 18
-2.0944846 -4.2286849 1.0606157 6.8663625e-44 18
-2.0769694 -4.2238035 1.0578896 6.8663625e-44 18
-2.0666692 -4.2335429 1.0588367 6.8663625e-44 18
-2.0497329 -4.2296448 1.0563838 6.8663625e-44 18
-2.0296566 -4.2190742 1.0522826 6.8663625e-44 18
-2.0216813 -4.233602 1.0544523 6.8663625e-44 18
-1.9999444 -4.2192273 1.0494359 6.8663625e-44 18
-1.9921082 -4.2340961 1.0517055 6.8663625e-44 18
-1.9750801 -4.2294188 1.0491294 6.8663625e-44 18
-1.9617513 -4.2325664 1.0485071 6.8663625e-44 18
-1.946514 -4.2315278 1.0468595 6.8663625e-44 18
-1.9258522 -4.2185054 1.0422641 6.8663625e-44 18
-1.916854 -4.2309427 1.0439714 6.8663625e-44 18
-1.9048052 -4.236702 1.0440372 6.8663625e-44 18
-1.8894033 -4.2349496 1.0422629 6.8663625e-44 18
-1.8719552 -4.2284632 1.039338 6.8663625e-44 18
-1.8500909 -4.2117381 1.0339156 6.8663625e-44 18
-1.839915 -4.2214837 1.0350056 6.8663625e-44 18
-1.8307834 -4.2337146 1.0367098 6.8663625e-44 18
-1.8201736 -4.2426109 1.0376029 6.8663625e-44 18
-1.7983412 -4.2251983 1.032076 6.8663625e-44 18
-1.7869567 -4.2321672 1.0325193 6.8663625e-44 18
-1.7716799 -4.2298727 1.030713 6.8663625e-44 18
-1.7457412 -4.2017965 1.0226445 6.8663625e-44 18
-1.7258959 -4.1879644 1.0180665 6.8663625e-44 18
-1.7221812 -4.2132864 1.0230145 6.8663625e-44 18
-1.7089446 -4.2154579 1.0223449 6.8663625e-44 18
-1.6922954 -4.209096 1.0196182 6.8663625e-44 18
-1.6821665 -4.2188993 1.0208174 6.8663625e-44 18
-1.6677406 -4.2179184 1.019416 6.8663625e-44 18
-1.6529083 -4.2158031 1.0177523 6.8663625e-44 18
-1.6375784 -4.2122908 1.0157639 6.8663625e-44 18
-1.6277493 -4.222908 1.0171918 6.8663625e-44 18
-1.6132501 -4.2214079 1.0157093 6.8663625e-44 18
-1.6013941 -4.2267771 1.0158895 6.8663625e-44 18
-1.5834821 -4.2160363 1.0122099 6.8663625e-44 18
-1.5710601 -4.2197714 1.0120182 6.8663625e-44 18
-1.5583644 -4.2227511 1.0116545 6.8663625e-44 18
-1.5475173 -4.2307577 1.0125029 6.8663625e-44 18
-1.5309788 -4.2231293 1.00962 6.8663625e-44 18
-1.5185419 -4.2266994 1.0094258 6.8663625e-44 18
-1.5058221 -4.2294598 1.0090473 6.8663625e-44 18
-1.490481 -4.224762 1.0069002 6.8663625e-44 18
-1.4775248 -4.2267199 1.0063505 6.8663625e-44 18
-1.4592067 -4.2131543 1.002118 6.8663625e-44 18
-1.4396656 -4.1956911 0.9969759 6.8663625e-44 18
-1.421207 -4.181004 0.99251115 6.8663625e-44 18
-1.4166825 -4.2073421 0.99779272 6.8663625e-44 18
-1.4088311 -4.2241321 1.00081 6.8663625e-44 18
-1.3978758 -4.2317724 1.0016642 6.8663625e-44 18
-1.3846713 -4.2326074 1.0009156 6.8663625e-44 18
-1.3701674 -4.2293701 0.99921459 6.8663625e-44 18
-1.358137 -4.2337012 0.99931151 6.8663625e-44 18
-1.3426572 -4.227181 0.9968574 6.8663625e-44 18
-1.3283871 -4.2242985 0.99527323 6.8663625e-44 18
-1.3146236 -4.2229075 0.99405116 6.8663625e-44 18
-1.3001204 -4.2190104 0.99225003 6.8663625e-44 18
-1.2871976 -4.2201371 0.99164075 6.8663625e-44 18
-1.27338 -4.2182465 0.99033237 6.8663625e-44 18
-1.2595826 -4.2163062 0.98902279 6.8663625e-44 18
-1.2495266 -4.2269053 0.9906624 6.8663625e-44 18
-1.2382458 -4.2334661 0.99136186 6.8663625e-44 18
-1.2206949 -4.2184243 0.98701376 6.8663625e-44 18
-1.2095685 -4.225421 0.98783332 6.8663625e-44 18
-1.1958421 -4.2233133 0.98653293 6.8663625e-44 18
-1.1835774 -4.2263012 0.98643214 6.8663625e-44 18
-1.1584207 -4.1827307 0.97548151 6.8663625e-44 18
-1.1497734 -4.1983848 0.97835749 6.8663625e-44 18
-1.1329118 -4.1839838 0.97423875 6.8663625e-44 18
-1.1203234 -4.1851392 0.97375393 6.8663625e-44 18
-1.1094476 -4.1927185 0.9747715 6.8663625e-44 18
-1.0948454 -4.1861534 0.97250944 6.8663625e-44 18
-1.0814803 -4.1841435 0.97131634 6.8663625e-44 18
-1.0705057 -4.1913705 0.97227573 6.8663625e-44 18
-1.05645 -4.1864877 0.97043473 6.8663625e-44 18
-1.0422359 -4.1807756 0.96841222 6.8663625e-44 18
-1.0291628 -4.179482 0.96742332 6.8663625e-44 18
-1.0167476 -4.1807861 0.96704477 6.8663625e-44 18
-1.0057582 -4.1879864 0.96803766 6.8663625e-44 18
-0.9963727 -4.2020621 0.97062516 6.8663625e-44 18
-0.9824549 -4.1970658 0.96881485 6.8663625e-44 18
-0.96826589 -4.190691 0.96669686 6.8663625e-44 18
-0.95629483 -4.1937995 0.96677589 6.8663625e-44 18
-0.94323057 -4.192059 0.96574569 6.8663625e-44 18
-0.92728108 -4.1772003 0.96170461 6.8663625e-44 18
-0.92058432 -4.2041135 0.9672876 6.8663625e-44 18
-0.90632415 -4.1966825 0.96497446 6.8663625e-44 18
-0.90039474 -4.2280869 0.97159654 6.8663625e-44 18
-0.88993245 -4.2387271 0.97344971 6.8663625e-44 18
-0.87951815 -4.2498326 0.97541559 6.8663625e-44 18
-0.86283916 -4.2304749 0.97039938 6.8663625e-44 18
-0.85122848 -4.2356868 0.97102964 6.8663625e-44 18
-0.84149593 -4.2504683 0.97385985 6.8663625e-44 18
-0.82396722 -4.225647 0.96762615 6.8663625e-44 18
-0.81140238 -4.225832 0.96713054 6.8663625e-44 18
-0.80268538 -4.2463055 0.97128409 6.8663625e-44 18
-0.78961807 -4.243979 0.97022873 6.8663625e-44 18
-0.77787346 -4.2487268 0.97079909 6.8663625e-44 18
-0.76222908 -4.2319069 0.96645117 6.8663625e-44 18
-0.75110924 -4.2399902 0.96780026 6.8663625e-44 18
-0.73834348 -4.2388263 0.96704614 6.8663625e-44 18
-0.7265498 -4.2432261 0.96756947 6.8663625e-44 18
-0.71434504 -4.2452636 0.96756184 6.8663625e-44 18
-0.7021271 -4.247221 0.96754408 6.8663625e-44 18
-0.68579066 -4.2238102 0.96175796 6.8663625e-44 18
-0.67570621 -4.2386789 0.9646973 6.8663625e-44 18
-0.66053778 -4.2215424 0.960361 6.8663625e-44 18
-0.65028447 -4.2356901 0.96315038 6.8663625e-44 18
-0.6381132 -4.2375817 0.96315944 6.8663625e-44 18
-0.62629843 -4.24189 0.96372545 6.8663625e-44 18
-0.61335832 -4.238523 0.96255612 6.8663625e-44 18
-0.60082889 -4.2378407 0.96200496 6.8663625e-44 18
-0.59021062 -4.2508211 0.96456242 6.8663625e-44 18
-0.57649297 -4.2414851 0.96206397 6.8663625e-44 18
-0.56346643 -4.2368612 0.96064389 6.8663625e-44 18
-0.55203891 -4.2442503 0.96195555 6.8663625e-44 18
-0.53861946 -4.2362399 0.9597851 6.8663625e-44 18
-0.52638268 -4.2373004 0.95967859 6.8663625e-44 18
-0.51595277 -4.2532334 0.96294737 6.8663625e-44 18
-0.50122356 -4.2335653 0.95816433 6.8663625e-44 18
-0.48860517 -4.2311096 0.95728678 6.8663625e-44 18
-0.47578949 -4.2267022 0.95597619 6.8663625e-44 18
-0.4647617 -4.2382922 0.95829147 6.8663625e-44 18
-0.45223525 -4.236402 0.95756626 6.8663625e-44 18
-0.43948069 -4.2321367 0.95631266 6.8663625e-44 18
-0.42688376 -4.229115 0.95534861 6.8663625e-44 18
-0.41594288 -4.2427335 0.95815098 6.8663625e-44 18
-0.40464422 -4.2533488 0.96028173 6.8663625e-44 18
-0.39201459 -4.2501287 0.95929635 6.8663625e-44 18
-0.37931383 -4.245831 0.95807624 6.8663625e-44 18
-0.36560112 -4.2294645 0.95414209 6.8663625e-44 18
-0.35426819 -4.2403755 0.95636988 6.8663625e-44 18
-0.34155264 -4.2348533 0.95489907 6.8663625e-44 18
-0.32994112 -4.2430453 0.95652848 6.8663625e-44 18
-0.31692252 -4.2330031 0.95405531 6.8663625e-44 18
-0.30610532 -4.252665 0.9582845 6.8663625e-44 18
-0.29292455 -4.2396884 0.9551667 6.8663625e-44 18
-0.28122529 -4.2478838 0.95682704 6.8663625e-44 18
-0.2673744 -4.2227707 0.95099336 6.8663625e-44 18
-0.25582278 -4.2332339 0.95318013 6.8663625e-44 18
-0.24383241 -4.2370477 0.95387715 6.8663625e-44 18
-0.23201475 -4.24435 0.95536697 6.8663625e-44 18
-0.21971652 -4.2431102 0.95494181 6.8663625e-44 18
-0.20814191 -4.2564473 0.95780486 6.8663625e-44 18
-0.19562797 -4.2509685 0.95644146 6.8663625e-44 18
-0.1828187 -4.2378364 0.95336467 6.8663625e-44 18
-0.17127115 -4.2540898 0.95690644 6.8663625e-44 18
-0.15886408 -4.2497783 0.95582992 6.8663625e-44 18
-0.14606507 -4.2333117 0.9520281 6.8663625e-44 18
-0.13432282 -4.2471857 0.95505744 6.8663625e-44 18
-0.12243859 -4.2588215 0.95759082 6.8663625e-44 18
-0.11018552 -4.2587099 0.95749056 6.8663625e-44 18
-0.09760166 -4.2441077 0.95414054 6.8663625e-44 18
-0.085320026 -4.2402711 0.95321894 6.8663625e-44 18
-0.073093966 -4.238296 0.95272386 6.8663625e-44 18
-0.060956713 -4.2416263 0.95342904 6.8663625e-44 18
-0.049017351 -4.2637477 0.9583658 6.8663625e-44 18
-0.036640309 -4.2497621 0.95519465 6.8663625e-44 18
-0.024299366 -4.227962 0.95027524 6.8663625e-44 18
-0.01219191 -4.2436714 0.95379418 6.8663625e-44 18
5.6430745e-06 -4.2531629 0.9559235 6.8663625e-44 18
0.012181823 -4.2362475 0.95212561 6.8663625e-44 18
0.02451426 -4.2633839 0.95823658 6.8663625e-44 18
0.03652326 -4.2348824 0.9518503 6.8663625e-44 18
0.048758492 -4.240252 0.95308477 6.8663625e-44 18
0.060924508 -4.2386022 0.95274937 6.8663625e-44 18
0.07314799 -4.2407761 0.95328128 6.8663625e-44 18
0.085558891 -4.2515817 0.95576161 6.8663625e-44 18
0.097412907 -4.2354107 0.95218539 6.8663625e-44 18
0.10985435 -4.2454743 0.95451492 6.8663625e-44 18
0.12192604 -4.2406015 0.95349413 6.8663625e-44 18
0.13458154 -4.2550087 0.95681661 6.8663625e-44 18
0.14637426 -4.2419457 0.9539699 6.8663625e-44 18
0.15851079 -4.240026 0.95363665 6.8663625e-44 18
0.16988494 -4.2193799 0.949099 6.8663625e-44 18
0.1808797 -4.1926308 0.94319516 6.8663625e-44 18
0.1930382 -4.1944504 0.94372541 6.8663625e-44 18
0.20570302 -4.2063437 0.94653046 6.8663625e-44 18
0.21710178 -4.1923995 0.94352919 6.8663625e-44 18
0.23005168 -4.2082334 0.94723767 6.8663625e-44 18
0.24158339 -4.1977725 0.9450354 6.8663625e-44 18
0.25329125 -4.1911588 0.94370639 6.8663625e-44 18
0.26563486 -4.1951213 0.94476664 6.8663625e-44 18
0.28167972 -4.2545767 0.95833474 6.8663625e-44 18
0.29364407 -4.249938 0.95747608 4.2948455e+18 18
0.29632181 -4.1165919 0.92762232 8.5896911e+18 18
0.30389741 -4.0588875 0.91481245 8.5896911e+18 18
0.31322643 -4.0279565 0.90804017 8.5896911e+18 18
0.32251018 -3.9986169 0.9016313 8.5896911e+18 18
0.33580479 -4.0192513 0.9064979 4.2948455e+18 18
0.366218 -4.2364702 0.95572269 4.2948455e+18 18
0.36145154 -4.0457687 0.91293228 8.5896911e+18 18
0.36405766 -3.9469121 0.89085752 8.5896911e+18 18
0.3757548 -3.9495716 0.89169788 1.2884537e+19 18
0.38719016 -3.9493396 0.89189315 1.7179382e+19 18
0.3969492 -3.9324503 0.88833296 1.7179382e+19 18
0.41039035 -3.9518988 0.8929891 1.7179382e+19 18
0.4208017 -3.941843 0.89098644 1.7179382e+19 18
0.43225241 -3.9417343 0.89123905 1.7179382e+19 18
0.4439826 -3.9440498 0.89204741 1.7179382e+19 18
0.45428216 -3.9337959 0.89001989 1.7179382e+19 18
0.46579525 -3.9342318 0.89041775 1.7179382e+19 18
0.47695878 -3.9317009 0.89015156 1.7179382e+19 18
0.4878692 -3.9271872 0.88944346 1.7179382e+19 18
0.50045604 -3.9360011 0.89176172 1.7179382e+19 18
0.51213896 -3.9374051 0.89240968 1.7179382e+19 18
0.5233593 -3.9352043 0.89224809 1.7179382e+19 18
0.53403139 -3.9290001 0.89118576 1.7179382e+19 18
0.54499584 -3.9250984 0.89065236 1.7179382e+19 18
0.55619013 -3.9229143 0.89051586 1.7179382e+19 18
0.56721127 -3.9195573 0.89012021 1.7179382e+19 18
0.58004671 -3.9285569 0.89253896 1.7179382e+19 18
0.58871472 -3.9094658 0.88858235 1.7179382e+19 18
0.60068148 -3.9125273 0.88966697 1.7179382e+19 18
0.61206174 -3.9116607 0.88986623 1.7179382e+19 18
0.62541676 -3.9231479 0.89288473 1.7179382e+19 18
0.63493955 -3.9105511 0.89042944 1.7179382e+19 18
0.64773363 -3.9181261 0.89257455 1.7179382e+19 18
0.6578536 -3.9094787 0.89103168 1.7179382e+19 18
0.6679973 -3.9012029 0.88957942 1.7179382e+19 18
0.68085033 -3.9086971 0.89173084 1.7179382e+19 18
0.69334435 -3.9138486 0.8933571 1.7179382e+19 18
0.70387566 -3.9078681 0.89245009 1.7179382e+19 18
0.71439159 -3.9019322 0.89155978 1.7179382e+19 18
0.72431123 -3.8929152 0.88997149 1.7179382e+19 18
0.73596179 -3.8932729 0.89053315 1.7179382e+19 18
0.74896359 -3.9005914 0.8926959 1.7179382e+19 18
0.75768316 -3.8856595 0.88977331 1.7179382e+19 18
0.76873243 -3.8828793 0.88963896 1.7179382e+19 18
0.78054166 -3.883898 0.89038265 1.7179382e+19 18
0.78811836 -3.8640687 0.88635248 1.7179382e+19 18
0.80271715 -3.8786783 0.89022928 1.7179382e+19 18
0.81571758 -3.8851919 0.8922587 1.7179382e+19 18
0.82377446 -3.8682423 0.88890618 1.7179382e+19 18
0.83942306 -3.8868508 0.89373308 1.7179382e+19 18
0.84768182 -3.8711343 0.89067584 1.7179382e+19 18
0.86137503 -3.8802588 0.89334118 1.7179382e+19 18
0.86861843 -3.8604076 0.88934201 1.7179382e+19 18
0.88136828 -3.8651643 0.89101779 1.7179382e+19 18
0.89344156 -3.8668017 0.89198357 1.7179382e+19 18
0.90312117 -3.8581047 0.89057243 1.7179382e+19 18
0.91445112 -3.8565238 0.89081055 1.7179382e+19 18
0.92352521 -3.8455229 0.888879 1.7179382e+19 18
0.93754512 -3.8550673 0.89170432 1.7179382e+19 18
0.94760764 -3.8482382 0.89075106 1.7179382e+19 18
0.96071708 -3.8537316 0.89265811 1.7179382e+19 18
0.97378027 -3.8588421 0.89448649 1.7179382e+19 18
0.98279971 -3.8479307 0.89260834 1.7179382e+19 18
0.99025178 -3.8311472 0.88937163 1.7179382e+19 18
1.000304 -3.8246319 0.88852292 1.7179382e+19 18
1.015671 -3.8382859 0.89236951 1.7179382e+19 18
1.0279326 -3.8399589 0.89344168 1.7179382e+19 18
1.0357423 -3.8250847 0.89066988 1.7179382e+19 18
1.0444117 -3.8136179 0.88869518 1.7179382e+19 18
1.0593851 -3.8251019 0.89207721 1.7179382e+19 18
1.0698519 -3.8201728 0.89164114 1.7179382e+19 18
1.0797186 -3.8131649 0.89072615 1.7179382e+19 18
1.0995291 -3.8409786 0.89795774 1.7179382e+19 18
1.1055928 -3.8206213 0.89393771 1.7179382e+19 18
1.1220084 -3.8360217 0.89829195 1.7179382e+19 18
1.1293494 -3.8203316 0.89537418 1.7179382e+19 18
1.1409308 -3.8190963 0.89584959 1.7179382e+19 18
1.1538566 -3.8222721 0.89736879 1.7179382e+19 18
1.1688856 -3.8322091 0.90048683 1.7179382e+19 18
1.1768074 -3.8188126 0.89813 1.7179382e+19 18
1.1868349 -3.812382 0.89741617 1.7179382e+19 18
1.1997613 -3.8152304 0.89889473 1.7179382e+19 18
1.2153301 -3.826273 0.90231574 1.7179382e+19 18
1.2289211 -3.8308635 0.9042275 1.7179382e+19 18
1.2364227 -3.8164983 0.90167195 1.7179382e+19 18
1.255204 -3.8368223 0.90732223 1.7179382e+19 18
1.2594122 -3.8125689 0.90243912 1.7179382e+19 18
1.2717745 -3.8131585 0.90344024 1.7179382e+19 18
1.2874966 -3.8236449 0.90679777 1.7179382e+19 18
1.2941645 -3.8072288 0.90378302 1.7179382e+19 18
1.3074027 -3.8101976 0.90537614 1.7179382e+19 18
1.3279866 -3.8342509 0.91199487 1.7179382e+19 18
1.3379291 -3.8273497 0.91126424 1.7179382e+19 18
1.3372324 -3.7903469 0.90336561 1.7179382e+19 18
1.346314 -3.7814114 0.90215451 1.7179382e+19 18
1.3577597 -3.7791474 0.90254176 1.7179382e+19 18
1.3693845 -3.777348 0.90304828 1.7179382e+19 18
1.3813726 -3.7765038 0.9037919 1.7179382e+19 18
1.3977593 -3.7875233 0.90738684 1.7179382e+19 18
1.400586 -3.7618577 0.90219879 1.7179382e+19 18
1.4186569 -3.7771573 0.90684223 1.7179382e+19 18
1.4328916 -3.7819955 0.90898889 1.7179382e+19 18
1.4380521 -3.7629354 0.90539753 1.7179382e+19 18
1.4563206 -3.778137 0.91005856 1.7179382e+19 18
1.4623892 -3.7616279 0.90709066 1.7179382e+19 18
1.4792619 -3.7728822 0.91082615 1.7179382e+19 18
1.4878079 -3.7628176 0.90942502 1.7179382e+19 18
1.4998431 -3.7616005 0.91016901 1.7179382e+19 18
1.5113297 -3.7589672 0.9105792 1.7179382e+19 18
1.5245087 -3.7604811 0.91200364 1.7179382e+19 18
1.5347059 -3.7546029 0.9116441 1.7179382e+19 18
1.54932 -3.7594666 0.91390252 1.7179382e+19 18
1.561493 -3.7583041 0.91470718 1.7179382e+19 18
1.5774753 -3.7661827 0.91772443 1.7179382e+19 18
1.5882375 -3.7614996 0.91769189 1.7179382e+19 18
1.6044594 -3.7696459 0.92080069 1.7179382e+19 18
1.6118703 -3.7570529 0.91885245 1.7179382e+19 18
1.6182284 -3.7421508 0.9163416 1.7179382e+19 18
1.6333964 -3.7476223 0.9188273 1.7179382e+19 18
1.6542027 -3.7657707 0.92443877 1.7179382e+19 18
1.6653888 -3.7618344 0.92464375 1.7179382e+19 18
1.6765584 -3.7578475 0.92484444 1.7179382e+19 18
1.6913759 -3.7619617 0.92704964 1.7179382e+19 18
1.6985877 -3.7491517 0.92509216 1.7179382e+19 18
1.7123466 -3.7508032 0.92671025 1.7179382e+19 18
1.7325639 -3.7663951 0.9317891 1.7179382e+19 18
1.8004773 -3.8845835 0.96230471 1.7179382e+19 18
1.8128127 -3.8819139 0.96293014 1.7179382e+19 18
1.8334222 -3.8967922 0.967924 1.7179382e+19 18
1.8452857 -3.892921 0.96827585 1.7179382e+19 18
1.8650877 -3.9056528 0.972772 1.7179382e+19 18
1.8770036 -3.901726 0.97313368 1.7179382e+19 18
1.8915499 -3.9032061 0.97485477 1.7179382e+19 18
1.9064807 -3.9053726 0.97676051 1.7179382e+19 18
1.9290358 -3.9229336 0.9825353 1.7179382e+19 18
1.9452875 -3.9274354 0.98505914 1.7179382e+19 18
1.9607441 -3.9301987 0.9871617 1.7179382e+19 18
1.9766601 -3.9337564 0.98947817 1.7179382e+19 18
2.0012066 -3.9542353 0.99607211 1.7179382e+19 18
2.0095444 -3.9425433 0.99457777 1.7179382e+19 18
2.025393 -3.9455655 0.99680465 1.7179382e+19 18
2.0495803 -3.9645941 1.0030962 1.7179382e+19 18
2.0674121 -3.9710658 1.006233 1.7179382e+19 18
2.0808256 -3.9689374 1.007205 1.7179382e+19 18
2.0984864 -3.9748001 1.0102193 1.7179382e+19 18
2.1155226 -3.9793236 1.0129102 1.7179382e+19 18
2.1378236 -3.9935358 1.0180877 1.7179382e+19 18
2.1506324 -3.9898591 1.0187221 1.7179382e+19 18
2.1699529 -3.9981458 1.0224261 1.7179382e+19 18
2.1845295 -3.9975541 1.0238763 1.7179382e+19 18
2.2067904 -4.0108509 1.0289023 1.7179382e+19 18
2.2331502 -4.0312815 1.0357857 1.7179382e+19 18
2.2479901 -4.0306954 1.0372909 1.7179382e+19 18
2.261507 -4.0276737 1.0381819 1.7179382e+19 18
2.2851222 -4.04247 1.0436845 1.7179382e+19 18
2.3111351 -4.0611949 1.0502297 1.7179382e+19 18
2.3181727 -4.0464606 1.048138 1.7179382e+19 18
2.3457303 -4.0674143 1.0553076 1.7179382e+19 18
2.3655589 -4.0746894 1.0589548 1.7179382e+19 18
2.3784704 -4.0699425 1.0594937 1.7179382e+19 18
2.4056771 -4.0894694 1.0663725 1.7179382e+19 18
2.4202175 -4.0872602 1.067606 1.7179382e+19 18
2.4475482 -4.1064477 1.074451 1.7179382e+19 18
2.4661703 -4.1107798 1.0774347 1.7179382e+19 18
2.4772639 -4.1024957 1.0771252 1.7179382e+19 18
2.4977615 -4.1096988 1.080897 1.7179382e+19 18
2.5248032 -4.1274157 1.0874609 1.7179382e+19 18
2.5406027 -4.1265516 1.0891527 1.7179382e+19 18
2.5685208 -4.1451635 1.096009 1.7179382e+19 18
2.5856333 -4.1461158 1.0982214 1.7179382e+19 18
2.609535 -4.1577787 1.1032928 1.7179382e+19 18
2.6321709 -4.1671953 1.1077945 1.7179382e+19 18
2.6481886 -4.1659846 1.1094917 1.7179382e+19 18
2.6841514 -4.1958723 1.1195015 1.7179382e+19 18
2.6949012 -4.1861219 1.1189619 1.7179382e+19 18
2.7231402 -4.2033925 1.125666 1.7179382e+19 18
2.7426453 -4.2069521 1.1287256 1.7179382e+19 18
2.7617688 -4.2097874 1.1316115 1.7179382e+19 18
2.7895083 -4.2255392 1.1379963 1.7179382e+19 18
2.8083599 -4.2276168 1.1407249 1.7179382e+19 18
2.8369551 -4.2441449 1.1473801 1.7179382e+19 18
2.8642788 -4.2584777 1.1534759 1.7179382e+19 18
2.8814263 -4.2574959 1.1554486 1.7179382e+19 18
2.9033198 -4.2633934 1.159309 1.7179382e+19 18
2.9294856 -4.2753515 1.1648455 1.7179382e+19 18
2.9560375 -4.2876196 1.1704981 1.7179382e+19 18
2.9874077 -4.3065801 1.1780134 1.7179382e+19 18
3.0046816 -4.3050075 1.1799407 1.7179382e+19 18
3.0342369 -4.320838 1.1866652 1.7179382e+19 18
3.0548348 -4.3236923 1.1898556 1.7179382e+19 18
3.0848861 -4.339704 1.1966972 1.7179382e+19 18
3.1044221 -4.3407121 1.1994307 1.7179382e+19 18
3.1344259 -4.3561482 1.2061806 1.7179382e+19 18
3.1553297 -4.3587189 1.2093986 1.7179382e+19 18
3.1856799 -4.3741202 1.2162075 1.7179382e+19 18
3.2156582 -4.3887196 1.2228316 1.7179382e+19 18
3.2377629 -4.3923512 1.2264315 1.7179382e+19 18
3.2629633 -4.4000025 1.2311815 1.7179382e+19 18
3.2982938 -4.4210291 1.2397126 1.7179382e+19 18
3.3277171 -4.4338207 1.2459766 1.7179382e+19 18
3.3453867 -4.4307795 1.2478188 1.7179382e+19 18
