# .PCD v0.7 - Point Cloud Data file format
VERSION 0.7
FIELDS x y z intensity ring
SIZE 4 4 4 4 2
TYPE F F F F U
COUNT 1 1 1 1 1
WIDTH 1086
HEIGHT 1
VIEWPOINT 0 0 0 1 0 0 0
POINTS 1086
DATA ascii
15.298223 -4.2605948 -0.92553443 2.8572842e+32 6
15.311345 -4.2168646 -0.92559123 2.8572842e+32 6
15.323681 -4.172914 -0.92560804 2.8572842e+32 6
15.347585 -4.1320758 -0.92633069 2.8572842e+32 6
15.339414 -4.0826268 -0.92512542 2.8572842e+32 6
15.360234 -4.0409269 -0.92567676 2.8572842e+32 6
15.364656 -3.9949071 -0.92524749 2.8572842e+32 6
15.382685 -3.9524264 -0.92564517 2.8572842e+32 6
15.395985 -3.9087045 -0.92576563 2.8572842e+32 6
15.400122 -3.8626719 -0.92534304 2.8572842e+32 6
15.426334 -3.8221514 -0.92625409 2.8572842e+32 6
15.427307 -3.7753613 -0.92565715 2.8572842e+32 6
15.435369 -3.7303445 -0.92549372 2.8572842e+32 6
15.444893 -3.6856928 -0.92542571 2.8572842e+32 6
15.45094 -3.6402285 -0.92515731 2.8572842e+32 6
15.476325 -3.5992882 -0.926054 2.8572842e+32 6
15.473827 -3.5518568 -0.92528981 2.8572842e+32 6
15.502538 -3.5115714 -0.92639923 2.8572842e+32 6
15.498524 -3.4638596 -0.92556059 2.8572842e+32 6
15.511882 -3.4200625 -0.92576742 2.8572842e+32 6
15.532582 -3.3778408 -0.92641962 2.8572842e+32 6
15.537013 -3.3320639 -0.9261089 2.8572842e+32 6
15.547719 -3.2876446 -0.92617995 2.8572842e+32 6
15.541403 -3.2396693 -0.92524511 2.8572842e+32 6
15.558599 -3.1966188 -0.92571801 2.8572842e+32 6
15.564842 -3.1513028 -0.92554682 2.8572842e+32 6
15.586948 -3.1091676 -0.92632604 2.8572842e+32 6
15.592905 -3.0637808 -0.92615288 2.8572842e+32 6
15.581922 -3.0151329 -0.92498195 2.8572842e+32 6
15.602942 -2.9726994 -0.92571867 2.8572842e+32 6
15.610608 -2.9276874 -0.92567044 2.8572842e+32 6
15.623823 -2.8837042 -0.92595881 2.8572842e+32 6
15.630188 -2.8384473 -0.9258486 2.8572842e+32 6
15.630763 -2.7921669 -0.92540348 2.8572842e+32 6
15.644318 -2.7482109 -0.92573452 2.8572842e+32 6
15.670033 -2.7063215 -0.92679203 2.8572842e+32 6
15.646927 -2.6560388 -0.92497015 2.8572842e+32 6
15.668571 -2.6134017 -0.92580175 2.8572842e+32 6
15.666142 -2.5667369 -0.92521846 2.8572842e+32 6
15.669872 -2.521121 -0.92500699 2.8572842e+32 6
15.692541 -2.4785173 -0.92592078 2.8572842e+32 6
15.701013 -2.4336212 -0.92600411 2.8572842e+32 6
15.685801 -2.3851154 -0.92469883 2.8572842e+32 6
15.699484 -2.3410478 -0.92510492 2.8572842e+32 6
15.712438 -2.2968328 -0.92547542 2.8572842e+32 6
15.730567 -2.2533221 -0.92615795 2.8572842e+32 6
15.730058 -2.2071276 -0.92575061 2.8572842e+32 6
15.736019 -2.1618624 -0.92573196 2.8572842e+32 6
15.745281 -2.1170423 -0.925915 2.8572842e+32 6
15.73121 -2.0691347 -0.924734 2.8572842e+32 6
15.759608 -2.0268061 -0.9260571 2.8572842e+32 6
15.754194 -1.9800956 -0.92540067 2.8572842e+32 6
15.758176 -1.9346037 -0.92530411 2.8572842e+32 6
15.771712 -1.8902661 -0.92577612 2.8572842e+32 6
15.775636 -1.844757 -0.92569131 2.8572842e+32 6
15.775554 -1.7987993 -0.92537934 2.8572842e+32 6
15.782434 -1.7536458 -0.92548347 2.8572842e+32 6
15.798776 -1.7095053 -0.92614973 2.8572842e+32 6
15.793098 -1.6629798 -0.92553288 2.8572842e+32 6
15.803147 -1.6181254 -0.92584544 2.8572842e+32 6
15.796019 -1.5715307 -0.92515934 2.8572842e+32 6
15.817558 -1.5277725 -0.92615986 2.8572842e+32 6
15.799105 -1.480168 -0.92482638 2.8572842e+32 6
15.823134 -1.4365522 -0.92598748 2.8572842e+32 6
15.82739 -1.3910829 -0.92599869 2.8572842e+32 6
15.83521 -1.3459153 -0.92622608 2.8572842e+32 6
15.848711 -1.3011912 -0.92679322 2.8572842e+32 6
15.831548 -1.2539816 -0.9255749 2.8572842e+32 6
15.842062 -1.2090045 -0.92598265 2.8572842e+32 6
15.838175 -1.1629293 -0.92555624 2.8572842e+32 6
15.840916 -1.1173633 -0.92552495 2.8572842e+32 6
15.846922 -1.072021 -0.92569196 2.8572842e+32 6
15.835096 -1.025507 -0.92482519 2.8572842e+32 6
15.858493 -0.98125762 -0.92602307 2.8572842e+32 6
15.869017 -0.93613017 -0.92647666 2.8572842e+32 6
15.854047 -0.88952714 -0.92544961 2.8572842e+32 6
15.853375 -0.84378618 -0.92526501 2.8572842e+32 6
15.85201 -0.79802817 -0.92504764 2.8572842e+32 6
15.866726 -0.7530545 -0.92577624 2.8572842e+32 6
15.859876 -0.70704699 -0.92525417 2.8572842e+32 6
15.888014 -0.66254979 -0.92678076 2.8572842e+32 6
15.876985 -0.61638087 -0.92603022 2.8572842e+32 6
15.858324 -0.57001144 -0.92484248 2.8572842e+32 6
15.86904 -0.52473021 -0.9253757 2.8572842e+32 6
15.874812 -0.47924671 -0.92562813 2.8572842e+32 6
15.873475 -0.43354374 -0.92547363 2.8572842e+32 6
15.886844 -0.38821501 -0.92618418 2.8572842e+32 6
15.867868 -0.34211844 -0.92501682 2.8572842e+32 6
15.889903 -0.29690292 -0.92624772 2.8572842e+32 6
15.87667 -0.25100803 -0.92543048 2.8572842e+32 6
15.893041 -0.20557632 -0.92634648 2.8572842e+32 6
15.864036 -0.15959737 -0.92462528 2.8572842e+32 6
15.874199 -0.11406926 -0.92519468 2.8572842e+32 6
15.881366 -0.068471707 -0.92559713 2.8572842e+32 6
15.875127 -0.022814808 -0.92522585 2.8572842e+32 6
15.871867 0.022810126 -0.92503589 2.8572842e+32 6
15.880571 0.06846828 -0.92555088 2.8572842e+32 6
15.877056 0.1140898 -0.92536128 2.8572842e+32 6
15.86465 0.15960354 -0.9246611 2.8572842e+32 6
15.878778 0.20539182 -0.92551512 2.8572842e+32 6
15.884918 0.25113845 -0.92591131 2.8572842e+32 6
15.861924 0.29638013 -0.92461681 2.8572842e+32 6
15.87956 0.34237051 -0.92569834 2.8572842e+32 6
15.889673 0.38828415 -0.92634916 2.8572842e+32 6
15.86531 0.4333207 -0.92499757 2.8572842e+32 6
15.874378 0.47923359 -0.92560279 2.8572842e+32 6
15.881111 0.52512932 -0.92607957 2.8572842e+32 6
15.877879 0.57071429 -0.92598289 2.8572842e+32 6
15.86902 0.6160717 -0.92556566 2.8572842e+32 6
15.877202 0.66209894 -0.92615014 2.8572842e+32 6
15.854635 0.7068134 -0.92494839 2.8572842e+32 6
15.858222 0.75265086 -0.92528003 2.8572842e+32 6
15.856543 0.79825634 -0.9253121 2.8572842e+32 6
15.845143 0.84334803 -0.92478454 2.8572842e+32 6
15.861553 0.88994825 -0.92588776 2.8572842e+32 6
15.85628 0.93537885 -0.92573309 2.8572842e+32 6
15.858375 0.98125029 -0.92601615 2.8572842e+32 6
15.844677 1.0261275 -0.9253847 2.8572842e+32 6
15.852896 1.0724251 -0.92604095 2.8572842e+32 6
15.835594 1.1169879 -0.92521399 2.8572842e+32 6
15.827804 1.1621678 -0.92495018 2.8572842e+32 6
15.838937 1.208766 -0.92579997 2.8572842e+32 6
15.82145 1.2531818 -0.92498457 2.8572842e+32 6
15.827643 1.2994615 -0.92556125 2.8572842e+32 6
15.813057 1.3440324 -0.92493033 2.8572842e+32 6
15.81542 1.390031 -0.92529839 2.8572842e+32 6
15.826435 1.4368517 -0.92618066 2.8572842e+32 6
15.812953 1.4814653 -0.92563707 2.8572842e+32 6
15.81811 1.5278258 -0.92619222 2.8572842e+32 6
15.799013 1.5718286 -0.92533475 2.8572842e+32 6
15.798949 1.6176956 -0.92559946 2.8572842e+32 6
15.793697 1.6630429 -0.92556798 2.8572842e+32 6
15.784922 1.7080063 -0.92533761 2.8572842e+32 6
15.793262 1.7548488 -0.92611831 2.8572842e+32 6
15.779501 1.7992494 -0.9256109 2.8572842e+32 6
15.763353 1.8433207 -0.92497063 2.8572842e+32 6
15.784283 1.8917726 -0.92651397 2.8572842e+32 6
15.751148 1.9337409 -0.92489147 2.8572842e+32 6
15.764022 1.9813308 -0.92597795 2.8572842e+32 6
15.751134 2.0257161 -0.9255591 2.8572842e+32 6
15.7488 2.0714483 -0.92576808 2.8572842e+32 6
15.727485 2.1146495 -0.92486852 2.8572842e+32 6
15.736199 2.1618872 -0.92574257 2.8572842e+32 6
15.725245 2.2064524 -0.92546737 2.8572842e+32 6
15.710512 2.2504494 -0.92497718 2.8572842e+32 6
15.718436 2.2977097 -0.92582875 2.8572842e+32 6
15.696321 2.3405762 -0.92491859 2.8572842e+32 6
15.706162 2.3882113 -0.92589915 2.8572842e+32 6
15.699378 2.4333677 -0.92590767 2.8572842e+32 6
15.693722 2.4787037 -0.92599046 2.8572842e+32 6
15.6873 2.5239251 -0.92603576 2.8572842e+32 6
15.680511 2.5690913 -0.92606711 2.8572842e+32 6
15.667325 2.613194 -0.92572814 2.8572842e+32 6
15.648993 2.6563892 -0.92509222 2.8572842e+32 6
15.647811 2.7024837 -0.92547774 2.8572842e+32 6
15.63092 2.7458575 -0.92494178 2.8572842e+32 6
15.62493 2.7911251 -0.92505819 2.8572842e+32 6
15.617559 2.836154 -0.92510056 2.8572842e+32 6
15.627319 2.8843493 -0.926166 2.8572842e+32 6
15.608313 2.9272571 -0.92553437 2.8572842e+32 6
15.600883 2.9723072 -0.92559659 2.8572842e+32 6
15.597555 3.018158 -0.92591 2.8572842e+32 6
15.573625 3.0599923 -0.9250077 2.8572842e+32 6
15.580279 3.1078372 -0.92592973 2.8572842e+32 6
15.558657 3.1500504 -0.925179 2.8572842e+32 6
15.553712 3.1956148 -0.92542732 2.8572842e+32 6
15.543106 3.2400246 -0.92534655 2.8572842e+32 6
15.528226 3.2835226 -0.92501873 2.8572842e+32 6
15.519958 3.3284061 -0.92509222 2.8572842e+32 6
15.514143 3.373831 -0.92531985 2.8572842e+32 6
15.49487 3.416312 -0.92475224 2.8572842e+32 6
15.494845 3.4630375 -0.92534095 2.8572842e+32 6
15.492112 3.5092099 -0.92577624 2.8572842e+32 6
15.475619 3.5522683 -0.92539698 2.8572842e+32 6
15.468085 3.5973721 -0.92556095 2.8572842e+32 6
15.444223 3.6386459 -0.9247551 2.8572842e+32 6
15.458137 3.688853 -0.92621922 2.8572842e+32 6
15.430807 3.7292418 -0.92522013 2.8572842e+32 6
15.430517 3.7761467 -0.92584974 2.8572842e+32 6
15.420815 3.8207839 -0.92592275 2.8572842e+32 6
15.408724 3.8648295 -0.92585993 2.8572842e+32 6
15.391501 3.9075663 -0.92549604 2.8572842e+32 6
15.374874 3.9504197 -0.92517519 2.8572842e+32 6
15.373967 3.997328 -0.92580819 2.8572842e+32 6
15.371419 4.0438695 -0.92635083 2.8572842e+32 6
15.342381 4.0834165 -0.92530441 2.8572842e+32 6
15.343956 4.1310987 -0.92611164 2.8572842e+32 6
15.319854 4.1718717 -0.92537683 2.8572842e+32 6
15.311085 4.2167931 -0.92557549 2.8572842e+32 6
15.301568 4.2615266 -0.92573684 2.8572842e+32 6
15.292924 4.3065228 -0.92595887 2.8572842e+32 6
15.280188 4.3503771 -0.92594099 2.8572842e+32 6
15.252041 4.3897948 -0.9249962 2.8572842e+32 6
15.244575 4.435132 -0.92531264 2.8572842e+32 6
15.239898 4.4813228 -0.92580676 2.8572842e+32 6
15.219065 4.5227633 -0.92532712 2.8572842e+32 6
15.22084 4.5709443 -0.92622995 2.8572842e+32 6
15.193391 4.6103511 -0.92536223 2.8572842e+32 6
15.18445 4.6553426 -0.92562884 2.8572842e+32 6
15.181012 4.7020669 -0.92623931 2.1429632e+32 6
15.135003 4.7355347 -0.92425877 1.4286421e+32 6
14.978662 4.7339282 -0.91553855 1.4286421e+32 6
14.851268 4.7406592 -0.90858096 1.4286421e+32 6
14.701119 4.7393341 -0.90022475 1.4286421e+32 6
14.567075 4.7423849 -0.89284754 1.4286421e+32 6
14.428349 4.7431321 -0.88517672 1.4286421e+32 6
14.274084 4.7379241 -0.87654442 1.4286421e+32 6
14.151664 4.7424898 -0.86986029 1.4286421e+32 6
14.00973 4.739759 -0.86196989 1.4286421e+32 6
12.896879 4.4046125 -0.7942757 1.4286421e+32 6
12.774353 4.4038067 -0.78750598 1.4286421e+32 6
12.653791 4.4029784 -0.78085065 1.4286421e+32 6
12.544571 4.405437 -0.77488899 1.4286421e+32 6
12.42759 4.4045219 -0.76844186 1.4286421e+32 6
12.307433 4.4017959 -0.76179123 1.4286421e+32 6
12.241455 4.4179254 -0.75849026 1.4286421e+32 6
12.247164 4.4598136 -0.75963509 1.4286421e+32 6
12.232645 4.494391 -0.75953269 1.4286421e+32 6
12.234717 4.5351081 -0.76046759 1.4286421e+32 6
12.23912 4.5767946 -0.76155573 1.4286421e+32 6
12.225863 4.6119356 -0.76155257 1.4286421e+32 6
12.235128 4.6556458 -0.76296014 1.4286421e+32 6
12.238383 4.6971979 -0.76400179 1.4286421e+32 6
12.240559 4.7384434 -0.76498467 1.4286421e+32 6
12.236538 4.7773738 -0.7655884 1.4286421e+32 6
12.253138 4.8244877 -0.7674914 1.4286421e+32 6
12.230108 4.8560691 -0.76692009 1.4286421e+32 6
12.234421 4.8985367 -0.76807016 1.4286421e+32 6
12.238802 4.9411554 -0.7692337 1.4286421e+32 6
12.258455 4.9901152 -0.77136725 1.4286421e+32 6
12.231925 5.0203471 -0.77060264 1.4286421e+32 6
12.23811 5.0640354 -0.77190602 1.4286421e+32 6
12.234594 5.103817 -0.77260643 1.4286421e+32 6
12.223153 5.1403403 -0.77281374 1.4286421e+32 6
12.239213 5.1885452 -0.77476889 1.4286421e+32 6
12.249637 5.2345514 -0.77637792 1.4286421e+32 6
12.23931 5.2717934 -0.77668059 1.4286421e+32 6
12.239836 5.3137789 -0.77767992 1.4286421e+32 6
12.230566 5.3515868 -0.77806509 1.4286421e+32 6
12.112986 5.3416729 -0.77155858 1.4286421e+32 6
12.04388 5.3526001 -0.76813352 1.4286421e+32 6
12.027821 5.3869157 -0.76809365 1.4286421e+32 6
12.023093 5.4263415 -0.76878458 1.4286421e+32 6
12.241218 5.567194 -0.78375196 1.4286421e+32 6
12.19155 5.5869508 -0.7815969 1.4286421e+32 6
12.079866 5.5778379 -0.77546149 1.4286421e+32 6
11.992537 5.5793886 -0.77088165 1.4286421e+32 6
12.000927 5.625309 -0.77245718 1.4286421e+32 6
12.00346 5.6686349 -0.77366573 1.4286421e+32 6
11.993855 5.7063184 -0.7741006 1.4286421e+32 6
12.013003 5.7578316 -0.77640146 1.4286421e+32 6
11.955227 5.7724543 -0.77373642 1.4286421e+32 6
11.861025 5.7690682 -0.76870972 1.4286421e+32 6
11.772495 5.7679095 -0.76404345 1.4286421e+32 6
11.688301 5.7683778 -0.75965208 1.4286421e+32 6
11.619923 5.7762246 -0.75628394 1.4286421e+32 6
11.536486 5.7761602 -0.75193089 1.4286421e+32 6
11.455482 5.7768431 -0.74773037 1.4286421e+32 6
10.997471 5.5855803 -0.7188797 1.4286421e+32 6
10.929626 5.5906982 -0.71549225 1.4286421e+32 6
10.85936 5.5941939 -0.71194208 1.4286421e+32 6
10.78478 5.595057 -0.70810395 1.4286421e+32 6
10.760789 5.6219239 -0.70758688 1.4286421e+32 6
10.635741 5.5955658 -0.70041889 1.4286421e+32 6
10.577744 5.603931 -0.69765735 1.4286421e+32 6
10.4874 5.5947309 -0.69275641 1.4286421e+32 6
10.402544 5.5879307 -0.68820924 1.4286421e+32 6
10.338073 5.5916467 -0.68500441 1.4286421e+32 6
10.277539 5.5971479 -0.68205667 1.4286421e+32 6
10.203778 5.5950646 -0.67822605 1.4286421e+32 6
10.138409 5.5971823 -0.67494762 1.4286421e+32 6
10.069587 5.597012 -0.67143416 1.4286421e+32 6
10.00558 5.5991387 -0.66823649 1.4286421e+32 6
9.9409513 5.600554 -0.66499257 1.4286421e+32 6
9.8793554 5.603322 -0.66194677 1.4286421e+32 6
9.8073378 5.5997934 -0.6581971 1.4286421e+32 6
9.7591591 5.6095409 -0.65604305 1.4286421e+32 6
9.6759453 5.5987716 -0.6515283 1.4286421e+32 6
9.6156235 5.6008201 -0.64854783 1.4286421e+32 6
9.5596352 5.6050701 -0.64585549 1.4286421e+32 6
9.488842 5.6002736 -0.64215755 1.4286421e+32 6
9.4265604 5.6001101 -0.63902926 1.4286421e+32 6
9.3629198 5.5987744 -0.6358034 1.4286421e+32 6
9.3071127 5.6017828 -0.63310444 7.1432105e+31 6
9.2373314 5.5960145 -0.62944919 1.117681e-37 6
9.1836967 5.5996695 -0.62688863 1.117681e-37 6
9.1354647 5.6063442 -0.62469363 1.117681e-37 6
9.0817814 5.6093974 -0.6221227 1.117681e-37 6
9.0216417 5.6081386 -0.61910462 1.117681e-37 6
8.9600964 5.6056499 -0.61598426 1.117681e-37 6
8.8939228 5.5998836 -0.61253899 1.117681e-37 6
8.8503437 5.6080327 -0.61064523 1.117681e-37 6
8.7881851 5.6041126 -0.60746539 1.117681e-37 6
8.7280159 5.6010962 -0.60441661 1.117681e-37 6
8.6828785 5.6074305 -0.60240453 1.117681e-37 6
8.6285172 5.607533 -0.59974873 1.117681e-37 6
8.5799818 5.6111331 -0.59749371 1.117681e-37 6
8.5280142 5.6122088 -0.59499568 1.117681e-37 6
8.4942646 5.6250544 -0.59376663 1.117681e-37 6
8.4750748 5.6474552 -0.59355742 1.117681e-37 6
8.4910641 5.6934204 -0.59582084 1.117681e-37 6
8.4733677 5.7169275 -0.59572965 1.117681e-37 6
8.4843025 5.7598619 -0.59766001 1.117681e-37 6
8.479888 5.792541 -0.59851933 1.117681e-37 6
8.4718294 5.8228197 -0.59912938 1.117681e-37 6
8.4221344 5.8243771 -0.59679633 1.117681e-37 6
8.3774576 5.8291469 -0.59481531 1.117681e-37 6
8.326293 5.8291359 -0.59236974 1.117681e-37 6
8.2792416 5.8317275 -0.59021235 1.117681e-37 6
8.2373333 5.8377037 -0.58841854 1.117681e-37 6
8.1888895 5.8388028 -0.5861544 1.117681e-37 6
8.1178865 5.8234444 -0.58226776 1.117681e-37 6
8.0776501 5.8298187 -0.58058131 1.117681e-37 6
8.0415277 5.838975 -0.57918888 1.117681e-37 6
7.98104 5.830162 -0.57603681 1.117681e-37 6
7.9313946 5.8289318 -0.57366049 1.117681e-37 6
7.8833547 5.8285975 -0.57139522 1.117681e-37 6
7.8483768 5.8377008 -0.57007378 1.117681e-37 6
7.8311381 5.8599157 -0.57004273 1.117681e-37 6
7.7861576 5.8612432 -0.56799251 1.117681e-37 6
7.7416339 5.8626633 -0.56597143 1.117681e-37 6
7.7006016 5.8664932 -0.56420207 1.117681e-37 6
7.6468706 5.8603716 -0.56149721 8.3826078e-38 6
7.6001954 5.8593531 -0.55930424 5.5884052e-38 6
7.5693226 5.8703165 -0.55827165 5.5884052e-38 6
7.1910987 5.6101632 -0.53156304 2.7942026e-38 6
7.1172004 5.5854931 -0.5272851 0 6
7.0772943 5.5871205 -0.52551621 2.7942026e-38 6
7.0321727 5.5843835 -0.52335542 5.5884052e-38 6
7.0228076 5.6099367 -0.52385634 8.3826078e-38 6
6.9930849 5.6191959 -0.52284181 1.117681e-37 6
6.9427066 5.6116309 -0.52027905 1.117681e-37 6
6.9139519 5.6213217 -0.51933283 5.5884052e-38 6
6.8760481 5.6234097 -0.51769769 0 6
6.8312387 5.6196079 -0.51553798 0 6
6.7986569 5.6256485 -0.51429731 0 6
6.758924 5.6255774 -0.51251268 0 6
6.6887245 5.5997705 -0.50840801 0 6
6.6663451 5.6137042 -0.50793129 0 6
6.6385617 5.6229997 -0.50704372 0 6
6.6068339 5.628819 -0.50585407 0 6
6.5674639 5.6279359 -0.50407612 0 6
6.5342541 5.6321301 -0.50276756 0 6
6.4968386 5.6325088 -0.50113231 0 6
6.4645762 5.637167 -0.49989152 0 6
6.4189768 5.6299648 -0.49761468 0 6
6.3896284 5.6367993 -0.49659345 0 6
6.3485632 5.6331038 -0.49465823 0 6
6.3029447 5.6250892 -0.49236155 0 6
6.2704182 5.6285219 -0.49108246 0 6
6.2320471 5.6265082 -0.48934186 0 6
6.1825852 5.6141915 -0.48672318 0 6
6.1625614 5.6284122 -0.48641837 0 6
6.1283665 5.6295743 -0.4849945 0 6
6.085537 5.6225677 -0.48288196 0 6
6.0616555 5.632885 -0.4822697 0 6
6.0248923 5.6310802 -0.48063055 0 6
5.9911633 5.6319056 -0.47922921 0 6
5.953536 5.6288552 -0.47751158 0 6
5.9339919 5.6427679 -0.47724295 0 6
5.8948622 5.6379118 -0.47539723 0 6
5.8438282 5.6213522 -0.47258264 0 6
5.8222952 5.6329484 -0.47214866 0 6
5.7900071 5.6340194 -0.47084156 0 6
5.7689042 5.6458573 -0.47044319 0 6
5.7248101 5.6350098 -0.46816629 0 6
5.6975341 5.6404958 -0.46725959 0 6
5.6572151 5.6328697 -0.46527886 0 6
5.6329403 5.6410341 -0.46461397 0 6
5.5785947 5.6188183 -0.46146166 0 6
5.5635147 5.6359367 -0.46155232 0 6
5.5338349 5.6381931 -0.46043262 0 6
5.4958153 5.6317458 -0.4586142 0 6
5.4713616 5.6390224 -0.45792422 0 6
5.4215961 5.6199636 -0.45510921 0 6
5.3966255 5.6263542 -0.45436871 0 6
5.3772058 5.6384602 -0.45409632 0 6
5.3433943 5.6353488 -0.45260698 0 6
5.3131094 5.6357646 -0.45141199 0 6
5.2894711 5.6430993 -0.45077983 0 6
5.244885 5.6278648 -0.44835681 0 6
5.2238078 5.6376514 -0.44793841 0 6
5.1920004 5.6357288 -0.44659811 0 6
5.1622801 5.6358905 -0.44543326 0 6
5.1273098 5.630116 -0.44381028 0 6
5.1144972 5.6485758 -0.44410476 0 6
5.0823903 5.6456456 -0.44272402 0 6
5.0507183 5.6429982 -0.44137618 0 6
5.0120263 5.6322622 -0.43940786 0 6
4.988287 5.638134 -0.43874553 0 6
4.9613829 5.6403089 -0.43780327 0 6
4.9312944 5.6387029 -0.4365766 0 6
4.9094248 5.6463642 -0.43607542 0 6
4.875649 5.6401772 -0.43451351 0 6
4.8506017 5.6439104 -0.43372524 0 6
4.8107786 5.6302314 -0.4316096 0 6
4.793777 5.6430955 -0.43153769 0 6
4.7684927 5.6461415 -0.43072072 0 6
4.7366581 5.6412611 -0.42930806 0 6
4.7106552 5.6431499 -0.42841962 0 6
4.6888928 5.6500115 -0.4279156 0 6
4.6517987 5.6382122 -0.42600754 0 6
4.6286635 5.6431346 -0.42537248 0 6
4.5934906 5.6331954 -0.42362633 0 6
4.5695548 5.6368451 -0.42291135 0 6
4.5362906 5.628808 -0.42132834 0 6
4.5263748 5.6496639 -0.42191389 0 6
4.4938946 5.6422825 -0.4203963 0 6
4.4661412 5.6406298 -0.41931495 0 6
4.4422045 5.6436539 -0.41858885 0 6
4.4157124 5.6432962 -0.41761923 0 6
4.3880534 5.6412826 -0.41653514 0 6
4.3688765 5.6500645 -0.41625464 0 6
4.3417683 5.6484823 -0.41521701 0 6
4.3104959 5.6412826 -0.4137753 0 6
4.2904377 5.648612 -0.41340664 0 6
4.2556458 5.6363673 -0.41161355 0 6
4.2326961 5.639607 -0.41095999 0 6
4.2148833 5.6496243 -0.41080546 0 6
4.1882873 5.6477723 -0.40979376 0 6
4.1687441 5.6553202 -0.40947032 0 6
4.1347256 5.6430588 -0.40772036 0 6
4.1072564 5.6394973 -0.4066084 0 6
4.0924807 5.6532836 -0.40675262 0 6
4.0587835 5.6407976 -0.40501317 0 6
4.0329299 5.6389842 -0.40404901 0 6
4.0126963 5.6449132 -0.40364575 0 6
3.9930239 5.6515679 -0.40329924 0 6
3.9688361 5.6517329 -0.40249532 0 6
3.9407141 5.6461234 -0.40128753 0 6
3.913589 5.6417422 -0.40017498 0 6
3.8955595 5.6503606 -0.39999041 0 6
3.867008 5.6435909 -0.39872274 0 6
3.847846 5.6503873 -0.39841989 0 6
3.8265297 5.6539483 -0.39789379 0 6
3.7998824 5.6494899 -0.39680976 0 6
3.7657204 5.6335979 -0.39493164 0 6
3.7565172 5.654943 -0.39566946 0 6
3.71381 5.625669 -0.39287269 0 6
3.6863534 5.6191392 -0.39167508 0 6
3.6687665 5.6275325 -0.39152348 0 6
3.6583591 5.6469803 -0.39214334 0 6
3.6347504 5.6460357 -0.39135063 0 6
3.6065333 5.6377416 -0.39005563 0 6
3.5949407 5.6553636 -0.39055827 0 6
3.57023 5.6523094 -0.38963708 0 6
3.5480032 5.6530428 -0.38898304 0 6
3.5270886 5.6557589 -0.38847074 0 6
3.5020592 5.6517382 -0.3875016 0 6
3.4795587 5.6516433 -0.38680777 0 6
3.4545476 5.6473136 -0.38583025 0 6
3.4402864 5.6604853 -0.386053 0 6
3.3998001 5.63027 -0.38332421 0 6
3.3888237 5.6487207 -0.38391563 0 6
3.3707471 5.6553731 -0.3837077 0 6
3.3555214 5.6668 -0.38382706 0 6
3.3244095 5.6512456 -0.38212469 0 6
3.3027935 5.6516075 -0.3815057 0 6
3.2796762 5.6492615 -0.38070944 0 6
3.252409 5.6395636 -0.3794243 0 6
3.2414587 5.658092 -0.38004249 0 6
3.2189667 5.6564636 -0.37931007 0 6
3.1975119 5.6565232 -0.3786962 0 6
3.1687121 5.6433778 -0.37720484 0 6
3.154372 5.6558576 -0.37743142 0 6
3.1295273 5.6494212 -0.37640005 0 6
3.1064036 5.6459017 -0.37556913 0 6
3.0856504 5.6465492 -0.37502068 0 6
3.0614684 5.6407661 -0.37405062 0 6
3.0448437 5.6488028 -0.37400165 0 6
3.022573 5.6462817 -0.37325799 0 6
2.9908855 5.6258917 -0.37134025 0 6
2.9706504 5.62679 -0.37083441 0 6
2.9490693 5.6250124 -0.37015709 0 6
2.9408855 5.6488252 -0.37116632 0 6
2.9132919 5.6353092 -0.36972651 0 6
2.8956866 5.6409407 -0.36954838 0 6
2.875632 5.6417279 -0.36905694 0 6
2.8545539 5.6403861 -0.36843094 0 6
2.8381112 5.6481318 -0.36840251 0 6
2.8129191 5.6383348 -0.36723462 0 6
2.7925639 5.6380429 -0.36669132 0 6
2.769552 5.6322274 -0.36579382 0 6
2.752547 5.6385159 -0.36568689 0 6
2.7337735 5.6411309 -0.36534536 0 6
2.7208192 5.6557651 -0.36578515 0 6
2.6941001 5.6416759 -0.3643716 0 6
2.6726179 5.6383085 -0.36365649 0 6
2.6540585 5.6409888 -0.36333585 0 6
2.6337235 5.6397929 -0.36276969 0 6
2.6161273 5.6443729 -0.36257914 0 6
2.5856495 5.6209054 -0.36059275 0 6
2.5687425 5.6266928 -0.36048886 0 6
2.5534766 5.6360774 -0.36061841 0 6
2.532831 5.6335282 -0.35998803 0 6
2.5206244 5.6497421 -0.36055964 0 6
2.4952543 5.6363616 -0.35924652 0 6
2.4756377 5.6357565 -0.35875294 0 6
2.4574652 5.6383438 -0.35846654 0 6
2.4378223 5.6374607 -0.35796341 0 6
2.4228439 5.6473231 -0.35814598 0 6
2.4033508 5.646626 -0.3576622 0 6
2.3834369 5.6448088 -0.35711169 0 6
2.3586581 5.631237 -0.35582271 0 6
2.3439922 5.641675 -0.35605508 0 6
2.3177559 5.6240973 -0.35452384 0 6
2.3127196 5.6579857 -0.35623953 0 6
2.2934046 5.657104 -0.35576752 0 6
2.277787 5.6652942 -0.35586938 0 6
2.2542825 5.6537313 -0.35473457 0 6
2.2341158 5.6503062 -0.35411531 0 6
2.2174258 5.6555815 -0.354045 0 6
2.2003448 5.6598325 -0.35391372 0 6
2.172828 5.6369739 -0.35209239 0 6
2.1632383 5.6605229 -0.35317346 0 6
2.1444881 5.6601939 -0.3527669 0 6
2.1229417 5.652307 -0.3518936 0 6
2.1070075 5.6592474 -0.35194722 0 6
2.0887747 5.6599746 -0.3516176 0 6
2.0689898 5.6563649 -0.35102245 0 6
2.0178056 5.5659699 -0.34505141 0 6
1.9967827 5.5577846 -0.34418675 0 6
1.9778283 5.5551548 -0.34367043 0 6
1.9605615 5.5571556 -0.34344417 0 6
1.9408863 5.5521998 -0.34279168 0 6
1.9244779 5.5564799 -0.342713 0 6
1.9076141 5.5594096 -0.34255409 0 6
1.8894513 5.5584688 -0.34216011 0 6
1.8719758 5.5594482 -0.34188777 0 6
1.8501254 5.5472264 -0.34080774 0 6
1.8357378 5.5572572 -0.3410984 0 6
1.8168038 5.553483 -0.34054482 0 6
1.8023165 5.5632582 -0.34082517 0 6
1.7853887 5.5655165 -0.3406477 0 6
1.7688663 5.5689936 -0.34054795 0 6
1.7446302 5.5479088 -0.33895054 0 6
1.7342188 5.570703 -0.34003723 0 6
1.7161261 5.5689344 -0.33962679 0 6
1.6949536 5.556931 -0.33859625 0 6
1.6749743 5.5485296 -0.33778957 0 6
1.6588221 5.55266 -0.33774936 0 6
1.6438929 5.560915 -0.33796269 0 6
1.6283882 5.5672774 -0.33806351 0 6
1.6147484 5.580121 -0.33856019 0 6
1.5909076 5.557508 -0.33690935 0 6
1.5724659 5.5533652 -0.33638284 0 6
1.5557202 5.5550866 -0.33621487 0 6
1.5396317 5.5591197 -0.33618972 0 6
1.5208633 5.5533576 -0.33557552 0 6
1.5063014 5.5628996 -0.3358891 0 6
1.487801 5.5578489 -0.33532453 0 6
1.4743003 5.571475 -0.33588961 0 6
1.4529768 5.5554123 -0.33466807 0 6
1.4316676 5.5389237 -0.33342549 0 6
1.4174216 5.5495949 -0.33382124 0 6
1.4005889 5.5501752 -0.33361262 0 6
1.3874801 5.5656099 -0.33429927 0 6
1.3702143 5.5644455 -0.33399138 0 6
1.351 5.5551414 -0.33319846 0 6
1.3347075 5.5576701 -0.33311868 0 6
1.3178281 5.5576892 -0.3328914 0 6
1.2979195 5.5446706 -0.3318868 0 6
1.2860534 5.56602 -0.33294207 0 6
1.2678863 5.5602055 -0.3323749 0 6
1.2521365 5.5648799 -0.33243781 0 6
1.2324539 5.551868 -0.33144751 0 6
1.2176133 5.5605121 -0.33175325 0 6
1.1994585 5.5539527 -0.33115485 0 6
1.1844369 5.5618238 -0.33141983 0 6
1.1708812 5.5768056 -0.33211061 0 6
1.1522551 5.5676236 -0.33136523 0 6
1.1327708 5.5538669 -0.33035132 0 6
1.1188939 5.5675049 -0.33096987 0 6
1.1005256 5.5587721 -0.33026132 0 6
1.0870177 5.5745997 -0.33101469 0 6
1.0693103 5.5689526 -0.33049551 0 6
1.0514101 5.5620093 -0.32990277 0 6
1.0340145 5.5574598 -0.32945526 0 6
1.016561 5.55235 -0.32897776 0 6
1.003282 5.5701513 -0.32986027 0 6
0.98638028 5.5680027 -0.32956377 0 6
0.96736449 5.5535479 -0.32854226 0 6
0.95099932 5.5539765 -0.32840458 0 6
0.9387148 5.5785747 -0.32969815 0 6
0.91975421 5.5635724 -0.3286539 0 6
0.90290517 5.5609336 -0.32834336 0 6
0.88831794 5.572289 -0.32886171 0 6
0.87035054 5.5623732 -0.32812753 0 6
0.8548125 5.5678053 -0.32830167 0 6
0.83856535 5.5686436 -0.32820764 0 6
0.82052028 5.5572429 -0.32739532 0 6
0.80524838 5.5644469 -0.32768202 0 6
0.79009265 5.5726728 -0.32803136 0 6
0.77482343 5.5803328 -0.3283498 0 6
0.75746125 5.5728288 -0.32777879 0 6
0.74029315 5.5663576 -0.32727167 0 6
0.72359943 5.5631466 -0.32695925 0 6
0.70836586 5.5711761 -0.32731017 0 6
0.69177336 5.5685492 -0.32703763 0 6
0.67557824 5.568975 -0.32694727 0 6
0.65893048 5.5655041 -0.32663095 0 6
0.64227355 5.5616822 -0.32629696 0 6
0.62634361 5.5640254 -0.32632747 0 6
0.61052275 5.5673914 -0.32642063 0 6
0.59427226 5.5668216 -0.32628572 0 6
0.57800335 5.5659466 -0.32613569 0 6
0.56139433 5.5615563 -0.32578257 0 6
0.54601753 5.5693784 -0.3261475 0 6
0.52873695 5.5575724 -0.32536575 0 6
0.51489609 5.5822191 -0.32672071 0 6
0.49799109 5.5740719 -0.32615873 0 6
0.48179248 5.5734544 -0.32604024 0 6
0.46598509 5.5773807 -0.32619023 0 6
0.44787201 5.5529056 -0.32468218 0 6
0.43327436 5.5717206 -0.32570815 0 6
0.41753736 5.5766759 -0.3259263 0 6
0.40065935 5.5660806 -0.32523841 0 6
0.38441348 5.5636525 -0.32503062 0 6
0.36980245 5.5856094 -0.32624993 0 6
0.35185629 5.5567999 -0.32450679 0 6
0.33633029 5.5651889 -0.32493889 0 6
0.32058483 5.570508 -0.3251943 0 6
0.30407736 5.5623527 -0.32466584 0 6
0.28845143 5.5702147 -0.32507503 0 6
0.2727755 5.5778837 -0.32547545 0 6
0.2555277 5.5522599 -0.3239361 0 6
0.24019779 5.5675716 -0.32478783 0 6
0.22428781 5.5705676 -0.32492363 0 6
0.20848416 5.5767703 -0.32524914 0 6
0.19252504 5.5794024 -0.325369 0 6
0.17600724 5.5647483 -0.3244836 0 6
0.15977962 5.5571532 -0.32401264 0 6
0.14447801 5.5835538 -0.32552636 0 6
0.1281952 5.5737925 -0.32493442 0 6
0.11208738 5.5698314 -0.3246834 0 6
0.096136577 5.5735459 -0.32488248 0 6
0.08015991 5.5768361 -0.3250595 0 6
0.064039432 5.5691495 -0.32459939 0 6
0.048118185 5.5793171 -0.32518262 0 6
0.031983953 5.5624714 -0.32419407 0 6
0.015969682 5.5534816 -0.32366613 0 6
7.3757319e-06 5.5590596 -0.32398987 0 6
-0.016017951 5.5754118 -0.32494426 0 6
-0.032106582 5.5863762 -0.3255873 0 6
-0.048000086 5.5673366 -0.32448435 0 6
-0.063879818 5.5565515 -0.32386509 0 6
-0.080010675 5.5674815 -0.32451421 0 6
-0.096450865 5.5926275 -0.32599473 0 6
-0.11226331 5.5793104 -0.32523593 0 6
-0.12782477 5.5583286 -0.32403293 0 6
-0.14440988 5.5814939 -0.32540622 0 6
-0.16029093 5.5754514 -0.32507947 0 6
-0.17614082 5.5694389 -0.3247571 0 6
-0.19204627 5.5659556 -0.32458484 0 6
-0.20864442 5.5814538 -0.32552224 0 6
-0.22430636 5.5713959 -0.32497191 0 6
-0.24071984 5.5800161 -0.32551372 0 6
-0.25636166 5.5707026 -0.32501206 0 6
-0.27316108 5.5860724 -0.32595325 0 6
-0.28849331 5.57131 -0.32513887 0 6
-0.30420071 5.5648804 -0.32481334 0 6
-0.32022476 5.5645089 -0.32484403 0 6
-0.33677176 5.5727391 -0.32537967 0 6
-0.35239062 5.5654726 -0.32501319 0 6
-0.36842054 5.5649605 -0.32504377 0 6
-0.3853218 5.577014 -0.32581115 0 6
-0.40064195 5.5660453 -0.32523629 0 6
-0.41599298 5.5562463 -0.32473224 0 6
-0.43244529 5.5612502 -0.32509598 0 6
-0.4494293 5.5723982 -0.32582185 0 6
-0.46602419 5.5780268 -0.32622793 0 6
-0.48295295 5.5870519 -0.32683557 0 6
-0.4979699 5.5740013 -0.32615453 0 6
-0.51528543 5.5866022 -0.32697716 0 6
-0.52953625 5.5661306 -0.3258667 0 6
-0.54726648 5.5822706 -0.32690236 0 6
-0.56466901 5.5941463 -0.3276915 0 6
-0.57991391 5.5844889 -0.32722208 0 6
-0.59502751 5.5740361 -0.3267085 0 6
-0.61023784 5.56493 -0.32627621 0 6
-0.62832141 5.581728 -0.32736561 0 6
-0.6447956 5.5836511 -0.32758576 0 6
-0.65941525 5.569725 -0.32687858 0 6
-0.70133114 5.7813916 -0.33941787 0 6
-0.71778762 5.7780809 -0.33934322 0 6
-0.73369944 5.7705431 -0.33902296 0 6
-0.75251734 5.7855921 -0.34003279 0 6
-0.76876485 5.7805572 -0.33986533 0 6
-0.78699934 5.7902632 -0.34056759 0 6
-0.80133158 5.771359 -0.33958974 2.315788e+27 6
-0.98761427 6.9659634 -0.41004625 4.631576e+27 6
-0.98866481 6.8320236 -0.4023276 4.631576e+27 6
-0.9919278 6.7182803 -0.39579567 4.631576e+27 6
-0.99087822 6.5802231 -0.38782847 4.631576e+27 6
-0.99247718 6.4645953 -0.38118011 4.631576e+27 6
-0.99517602 6.3602381 -0.37519386 4.631576e+27 6
-0.99398476 6.2352281 -0.36798647 4.631576e+27 6
-0.99442983 6.1247306 -0.36163241 4.631576e+27 6
-0.99515665 6.0197797 -0.35560304 4.631576e+27 6
-0.99482405 5.9121156 -0.34941053 4.631576e+27 6
-0.99841523 5.8309855 -0.34478384 4.631576e+27 6
-0.99480259 5.7111568 -0.3378661 4.631576e+27 6
-0.99856561 5.6368747 -0.33364007 4.631576e+27 6
-1.0006118 5.5554113 -0.32898721 4.631576e+27 6
-0.99893093 5.4561381 -0.32327703 4.631576e+27 6
-0.99903768 5.3695512 -0.31831557 4.631576e+27 6
-1.0008463 5.2946014 -0.31404164 4.631576e+27 6
-1.0009867 5.2131987 -0.30938274 4.631576e+27 6
-0.99892616 5.1229091 -0.30419356 4.631576e+27 6
-1.0039977 5.0712786 -0.3012979 4.631576e+27 6
-1.0012081 4.9819803 -0.29616219 4.631576e+27 6
-1.0038525 4.9218593 -0.29275852 4.631576e+27 6
-1.0039257 4.8509698 -0.28871238 4.631576e+27 6
-1.0034616 4.7794633 -0.28462705 4.631576e+27 6
-1.0027037 4.7085109 -0.28057215 4.631576e+27 6
-1.0042729 4.650229 -0.27727008 4.631576e+27 6
-1.0079715 4.6031928 -0.27463716 4.631576e+27 6
-1.0046648 4.5257969 -0.27019072 4.631576e+27 6
-1.0053686 4.4682231 -0.26692498 4.631576e+27 6
-1.0168592 4.4594021 -0.26657152 4.631576e+27 6
-1.0333389 4.4723291 -0.2675207 4.631576e+27 6
-1.0468524 4.4721732 -0.26769024 4.631576e+27 6
-1.0629334 4.4827724 -0.26850647 4.631576e+27 6
-1.0715928 4.4621229 -0.26745299 4.631576e+27 6
-1.0864223 4.4672832 -0.26794836 4.631576e+27 6
-1.0986731 4.4617667 -0.26780578 4.631576e+27 6
-1.1158624 4.4761181 -0.26885858 4.631576e+27 6
-1.1275163 4.4681082 -0.26857102 4.631576e+27 6
-1.1404877 4.4653721 -0.26860249 4.631576e+27 6
-1.155699 4.4712887 -0.26915708 4.631576e+27 6
-1.1692017 4.4704556 -0.26930812 4.631576e+27 6
-1.1802766 4.4603891 -0.26890495 4.631576e+27 6
-1.1960942 4.4681921 -0.26958156 4.631576e+27 6
-1.2100167 4.4687424 -0.26982343 4.631576e+27 6
-1.2254093 4.4745684 -0.27038679 4.631576e+27 6
-1.2359648 4.4627209 -0.26988441 4.631576e+27 6
-1.2513677 4.4683661 -0.27044222 4.631576e+27 6
-1.2674391 4.4761696 -0.27113387 4.631576e+27 6
-1.2769657 4.4608617 -0.27042785 4.631576e+27 6
-1.2941067 4.4721169 -0.27133456 4.631576e+27 6
-1.3065234 4.4669023 -0.27124488 4.631576e+27 6
-1.3186067 4.4605899 -0.2710906 4.631576e+27 6
-1.3346523 4.4675937 -0.27174824 4.631576e+27 6
-1.3472023 4.4627929 -0.27169067 4.631576e+27 6
-1.3630843 4.4689355 -0.272302 4.631576e+27 6
-1.382094 4.4850225 -0.27352315 4.631576e+27 6
-1.3887651 4.4610691 -0.27230465 4.631576e+27 6
-1.4052162 4.468617 -0.27301076 4.631576e+27 6
-1.4219836 4.4769297 -0.27376723 4.631576e+27 6
-1.4272419 4.449121 -0.27231646 4.631576e+27 6
-1.433677 4.4254084 -0.27111617 4.631576e+27 6
-1.4584631 4.4581714 -0.27337903 4.631576e+27 6
-1.4662857 4.4388685 -0.27245268 4.631576e+27 6
-1.4869324 4.4583049 -0.27390689 4.631576e+27 6
-1.4922515 4.4317713 -0.27253908 4.631576e+27 6
-1.5120189 4.4481611 -0.27381313 4.631576e+27 6
-1.5228162 4.4380212 -0.27345726 4.631576e+27 6
-1.5399435 4.4462647 -0.27423683 4.631576e+27 6
-1.5542082 4.4460864 -0.27450019 4.631576e+27 6
-1.5635113 4.4317656 -0.27389237 4.631576e+27 6
-1.5824951 4.4448142 -0.27497879 4.631576e+27 6
-1.5939237 4.4365158 -0.2747477 4.631576e+27 6
-1.6127822 4.4487796 -0.27579311 4.631576e+27 6
-1.6244347 4.4410419 -0.27560174 4.631576e+27 6
-1.6407175 4.4459057 -0.27619511 4.631576e+27 6
-1.6557094 4.447134 -0.27656591 4.631576e+27 6
-1.6747732 4.4590998 -0.27760828 4.631576e+27 6
-1.6856018 4.4490385 -0.27728236 4.631576e+27 6
-1.7012811 4.4517593 -0.27775556 4.631576e+27 6
-1.7141294 4.4470062 -0.27776527 4.631576e+27 6
-1.7297095 4.4492769 -0.27821648 4.631576e+27 6
-1.7425171 4.4443536 -0.27822065 4.631576e+27 6
-1.7631189 4.4591417 -0.27946249 4.631576e+27 6
-1.7732376 4.4473071 -0.27903906 4.631576e+27 6
-1.7833079 4.4354634 -0.2786164 4.631576e+27 6
-1.7995062 4.4388466 -0.27915266 4.631576e+27 6
-1.8188565 4.449801 -0.28016919 4.631576e+27 6
-1.8307894 4.4424934 -0.28003925 4.631576e+27 6
-1.8456229 4.4421997 -0.28035399 4.631576e+27 6
-1.861086 4.4433293 -0.28076172 4.631576e+27 6
-1.8783709 4.4486694 -0.28143913 4.631576e+27 6
-1.8885577 4.4371619 -0.28105339 4.631576e+27 6
-1.9085091 4.4485106 -0.28211853 4.631576e+27 6
-1.9188769 4.4374323 -0.28176457 4.631576e+27 6
-1.9344215 4.4383187 -0.28217271 4.631576e+27 6
-1.9498971 4.4389472 -0.28256783 4.631576e+27 6
-1.9702381 4.45047 -0.28366065 4.631576e+27 6
-1.9826355 4.4439225 -0.28360537 4.631576e+27 6
-1.9994686 4.4472537 -0.28418359 4.631576e+27 6
-2.0213997 4.4616995 -0.28547677 4.631576e+27 6
-2.0261493 4.4382019 -0.28434476 4.631576e+27 6
-2.0491037 4.4545479 -0.28576815 4.631576e+27 6
-2.0651319 4.4556146 -0.2862162 4.631576e+27 6
-2.0803797 4.4549065 -0.28655362 4.631576e+27 6
-2.0904257 4.4430633 -0.28617713 4.631576e+27 6
-2.1110795 4.4536853 -0.28725097 4.631576e+27 6
-2.1296611 4.4597225 -0.28803396 4.631576e+27 6
-2.1421008 4.4528136 -0.28798419 4.631576e+27 6
-2.1619751 4.4612575 -0.28893101 4.631576e+27 6
-2.1707795 4.4468112 -0.28839833 4.631576e+27 6
-2.1922817 4.4583073 -0.28955135 4.631576e+27 6
-2.2023954 4.4465532 -0.28919789 4.631576e+27 6
-2.2221377 4.4541764 -0.29010794 4.631576e+27 6
-2.2367785 4.451448 -0.29034775 4.631576e+27 6
-2.253232 4.4522481 -0.29082119 4.631576e+27 6
-2.2680621 4.4497604 -0.29108331 4.631576e+27 6
-2.2892694 4.4596391 -0.29215875 4.631576e+27 6
-2.2986557 4.4464202 -0.29172438 4.631576e+27 6
-2.3233695 4.4627352 -0.2932317 4.631576e+27 6
-2.335597 4.4549131 -0.29315764 4.631576e+27 6
-2.3480155 4.4474683 -0.29311064 4.631576e+27 6
-2.3737795 4.4651365 -0.29472351 4.631576e+27 6
-2.3803432 4.4466004 -0.29395041 4.631576e+27 6
-2.3896365 4.4332886 -0.29352325 4.631576e+27 6
-2.4143414 4.4484611 -0.29498604 4.631576e+27 6
-2.4336541 4.4534645 -0.29578045 4.631576e+27 6
-2.4477561 4.4488349 -0.29593903 4.631576e+27 6
-2.4666758 4.4528694 -0.29667783 4.631576e+27 6
-2.4811471 4.4487786 -0.29687917 4.631576e+27 6
-2.5009189 4.4540863 -0.29771185 4.631576e+27 6
-2.5131993 4.4459753 -0.29765129 4.631576e+27 6
-2.5420156 4.4669328 -0.29954231 4.631576e+27 6
-2.5451152 4.442625 -0.29840162 4.631576e+27 6
-2.5639954 4.4459057 -0.29911572 4.631576e+27 6
-2.581713 4.4470429 -0.29969025 4.631576e+27 6
-2.6053288 4.4581609 -0.3009429 4.631576e+27 6
-2.6154799 4.4461455 -0.30063805 4.631576e+27 6
-2.6475215 4.471158 -0.30284265 4.631576e+27 6
-2.6604993 4.4637604 -0.30285826 4.631576e+27 6
-2.6761272 4.4607768 -0.30317646 4.631576e+27 6
-2.6889291 4.453052 -0.30317551 4.631576e+27 6
-2.7001641 4.4427495 -0.3030012 4.631576e+27 6
-2.7414737 4.4816442 -0.30619004 4.631576e+27 6
-2.7620075 4.4861937 -0.30704197 4.631576e+27 6
-2.7783937 4.4838901 -0.30742961 4.631576e+27 6
-2.7980549 4.4867649 -0.30817685 4.631576e+27 6
-2.8103406 4.4777493 -0.30811119 4.631576e+27 6
-2.829711 4.4799623 -0.30882183 4.631576e+27 6
-2.8427448 4.4720764 -0.30884019 4.631576e+27 6
-2.8649166 4.4784708 -0.3098492 4.631576e+27 6
-2.8844113 4.4805231 -0.3105635 4.631576e+27 6
-2.9017971 4.4791899 -0.31104794 4.631576e+27 6
-2.9269407 4.4896693 -0.31235856 4.631576e+27 6
-2.9374063 4.4775386 -0.31210071 4.631576e+27 6
-2.9601007 4.4839783 -0.31314132 4.631576e+27 6
-2.9740372 4.4770479 -0.31325302 4.631576e+27 6
-2.9901071 4.4732895 -0.31359008 4.631576e+27 6
-3.0137155 4.480679 -0.31471407 4.631576e+27 6
-3.0347764 4.4841061 -0.31556618 4.631576e+27 6
-3.0518346 4.4815063 -0.31599924 4.631576e+27 6
-3.0703592 4.4809709 -0.31658241 4.631576e+27 6
-3.090662 4.482913 -0.31734595 4.631576e+27 6
-3.1101291 4.4835176 -0.31802025 4.631576e+27 6
-3.1271062 4.4804387 -0.31843808 4.631576e+27 6
-3.5185268 5.0105085 -0.35682905 4.631576e+27 6
-3.5293856 4.9953809 -0.35647267 4.631576e+27 6
-3.5572708 5.0042658 -0.35783485 4.631576e+27 6
-3.5847354 5.0123315 -0.35914689 4.631576e+27 6
-3.5930002 4.9934916 -0.35853547 4.631576e+27 6
-3.6294916 5.0137467 -0.36073732 4.631576e+27 6
-3.639817 4.9977045 -0.36033437 4.631576e+27 6
-3.6695752 5.0082512 -0.36185375 4.631576e+27 6
-3.6872165 5.0021081 -0.36217412 4.631576e+27 6
-3.7119153 5.0054278 -0.36318547 4.631576e+27 6
-3.7217174 4.9886127 -0.3627401 4.631576e+27 6
-3.7334468 4.9744391 -0.36248827 4.631576e+27 6
-3.7532368 4.9709821 -0.36302096 4.631576e+27 6
-3.7702672 4.9638047 -0.3632867 4.631576e+27 6
-3.8053308 4.9801841 -0.36528447 4.631576e+27 6
-3.8285649 4.9808512 -0.36613899 4.631576e+27 6
-3.8360577 4.9610219 -0.36549038 4.631576e+27 6
-3.8696966 4.9749103 -0.3673315 4.631576e+27 6
-3.8911793 4.9729681 -0.36801237 4.631576e+27 6
-3.9167142 4.9760652 -0.36907315 4.631576e+27 6
-3.9391675 4.9751015 -0.36983994 4.631576e+27 6
-3.9601393 4.972156 -0.37046561 4.631576e+27 6
-3.9787993 4.9662266 -0.37087435 4.631576e+27 6
-4.0080462 4.9733686 -0.3722665 4.631576e+27 6
-4.041822 4.9858794 -0.374071 4.631576e+27 6
-4.0624743 4.9820142 -0.37465551 4.631576e+27 6
-4.075016 4.9681702 -0.37449372 4.631576e+27 6
-4.1042233 4.9745498 -0.37586227 4.631576e+27 6
-4.1332731 4.9805284 -0.37721005 4.631576e+27 6
-4.1492481 4.9706368 -0.37736258 4.631576e+27 6
-4.1689253 4.9651299 -0.37785265 4.631576e+27 6
-4.2003369 4.9734421 -0.37940243 4.631576e+27 6
-4.229949 4.9794006 -0.38078287 4.631576e+27 6
-4.259234 4.9847655 -0.38212776 4.631576e+27 6
-4.2731667 4.9720635 -0.38209403 4.631576e+27 6
-4.3066516 4.9819846 -0.38380614 4.631576e+27 6
-4.3215594 4.970283 -0.38385999 4.631576e+27 6
-4.3559084 4.9808025 -0.38563779 4.631576e+27 6
-4.3756261 4.9744225 -0.38611597 4.631576e+27 6
-4.4136019 4.9886088 -0.38820019 4.631576e+27 6
-4.4260807 4.9738326 -0.38803872 4.631576e+27 6
-4.4703131 4.9945579 -0.39065644 4.631576e+27 6
-4.4923644 4.9902573 -0.39132839 4.631576e+27 6
-4.5061865 4.9767685 -0.3912847 4.631576e+27 6
-4.5432382 4.9887948 -0.39325529 4.631576e+27 6
-4.5587358 4.9770007 -0.39335686 4.631576e+27 6
-4.5798726 4.9713125 -0.39394611 4.631576e+27 6
-4.609024 4.9741893 -0.39522222 4.631576e+27 6
-4.6419907 4.9809742 -0.39681977 4.631576e+27 6
-4.6626415 4.9743896 -0.39736122 4.631576e+27 6
-4.699975 4.9854221 -0.39932001 4.631576e+27 6
-4.7294583 4.9878945 -0.40060523 4.631576e+27 6
-4.7551179 4.9861741 -0.40156311 4.631576e+27 6
-4.7743974 4.9776649 -0.40198135 4.631576e+27 6
-4.8109474 4.986999 -0.40385017 4.631576e+27 6
-4.8392115 4.9875278 -0.4050177 4.631576e+27 6
-4.8564258 4.9765682 -0.40525961 4.631576e+27 6
-4.8894997 4.9817333 -0.40682298 4.631576e+27 6
-4.9115162 4.9754772 -0.40746325 4.631576e+27 6
-4.9356165 4.97123 -0.40827554 4.631576e+27 6
-4.9793835 4.9865642 -0.41070864 4.631576e+27 6
-5.0040979 4.9825892 -0.4115642 4.631576e+27 6
-5.0298605 4.9795327 -0.41250417 4.631576e+27 6
-5.065423 4.9859924 -0.4142437 4.631576e+27 6
-5.0977235 4.9890189 -0.41571078 4.631576e+27 6
-5.1297998 4.9916253 -0.41715482 4.631576e+27 6
-5.1390905 4.9719887 -0.41674647 4.631576e+27 6
-5.1790729 4.9819307 -0.41882583 4.631576e+27 6
-5.2140737 4.9868245 -0.42049542 4.631576e+27 6
-5.2550635 4.9971862 -0.42264101 4.631576e+27 6
-5.2688861 4.9815698 -0.42259938 4.631576e+27 6
-5.3008919 4.9830523 -0.42401591 4.631576e+27 6
-5.3354149 4.9866962 -0.42562914 4.631576e+27 6
-5.3629966 4.9836721 -0.42668495 4.631576e+27 6
-5.3898683 4.9798503 -0.42768234 4.631576e+27 6
-5.4286895 4.9868712 -0.42962363 4.631576e+27 6
-5.460269 4.9870186 -0.43098661 4.631576e+27 6
-5.4878035 4.9833107 -0.43202758 4.631576e+27 6
-5.5217299 4.9852357 -0.43356863 4.631576e+27 6
-5.5655713 4.9958563 -0.43588176 4.631576e+27 6
-5.6180177 5.0138497 -0.43885875 4.631576e+27 6
-5.6552787 5.0179768 -0.44064096 4.631576e+27 6
-5.6887546 5.0185299 -0.44212353 4.631576e+27 6
-5.713819 5.0115108 -0.44295016 4.631576e+27 6
-5.7500358 5.0141082 -0.4446387 4.631576e+27 6
-5.78686 5.0170116 -0.44636929 4.631576e+27 6
-5.820024 5.0165343 -0.44781333 4.631576e+27 6
-5.8579278 5.0199313 -0.44961771 4.631576e+27 6
-5.8953018 5.0226426 -0.45137644 4.631576e+27 6
-5.9396858 5.031064 -0.45366564 4.631576e+27 6
-5.9660549 5.0240197 -0.45457482 4.631576e+27 6
-6.0007887 5.0238614 -0.45611921 4.631576e+27 6
-6.0285993 5.0177417 -0.45713496 4.631576e+27 6
-6.0671129 5.0203485 -0.45895928 4.631576e+27 6
-6.0912395 5.0108867 -0.45969293 4.631576e+27 6
-6.1440649 5.0248022 -0.46258771 4.631576e+27 6
-6.1757116 5.0211296 -0.46388185 4.631576e+27 6
-6.216958 5.0250525 -0.46589324 4.631576e+27 6
-6.2563829 5.027257 -0.46776292 4.631576e+27 6
-6.291821 5.0260396 -0.46933043 4.631576e+27 6
-6.3280201 5.0252295 -0.47095126 4.631576e+27 6
-6.3563318 5.0179892 -0.47198296 4.631576e+27 6
-6.4048653 5.0264888 -0.47451201 4.631576e+27 6
-6.4263401 5.0135617 -0.4750334 4.631576e+27 6
-6.4209032 4.9796977 -0.47357154 4.631576e+27 6
-6.4293733 4.9567375 -0.47314349 4.631576e+27 6
-6.4647045 4.9544163 -0.47469363 4.631576e+27 6
-6.5196276 4.9668279 -0.4776763 4.631576e+27 6
-6.5716634 4.9766841 -0.48043883 4.631576e+27 6
-6.5723205 4.9475217 -0.47944525 4.631576e+27 6
-6.5605826 4.9092064 -0.47755763 4.631576e+27 6
-6.5620861 4.8809719 -0.47664389 4.631576e+27 6
-6.5646482 4.8536325 -0.47581473 4.631576e+27 6
-6.5697689 4.8282743 -0.475178 4.631576e+27 6
-6.57584 4.803688 -0.4746165 4.631576e+27 6
-6.5714903 4.7716036 -0.47331074 4.631576e+27 6
-6.5650568 4.738173 -0.47186449 4.631576e+27 6
-6.5701914 4.7132168 -0.4712579 4.631576e+27 6
-6.5758858 4.6887331 -0.47069776 4.631576e+27 6
-6.5697126 4.6559062 -0.46929604 4.631576e+27 6
-6.5694046 4.6273799 -0.46832201 4.631576e+27 6
-6.5754066 4.6033878 -0.4678047 4.631576e+27 6
-6.5756235 4.5754323 -0.46688256 4.631576e+27 6
-6.567533 4.5418425 -0.46537933 4.631576e+27 6
-6.5988455 4.5355144 -0.46667245 4.631576e+27 6
-6.6285067 4.5279036 -0.46784776 4.631576e+27 6
-6.6859455 4.5390105 -0.47097909 4.631576e+27 6
-6.7102818 4.5274105 -0.47177479 4.631576e+27 6
-6.7545314 4.529068 -0.47396863 4.631576e+27 6
-6.8106136 4.5383501 -0.47698662 4.631576e+27 6
-6.8549333 4.5394855 -0.47917479 4.631576e+27 6
-6.8924227 4.5358677 -0.48088205 4.631576e+27 6
-6.9344664 4.5350261 -0.48290396 4.631576e+27 6
-6.9742999 4.5325103 -0.48476869 4.631576e+27 6
-7.0238705 4.5360641 -0.48730597 4.631576e+27 6
-7.0657926 4.5344114 -0.48930821 4.631576e+27 6
-7.0802031 4.5149808 -0.48940545 4.631576e+27 6
-7.0718756 4.4811301 -0.48793751 4.631576e+27 6
-7.1301484 4.4893842 -0.49106577 4.631576e+27 6
-7.1730266 4.4876428 -0.49312848 4.631576e+27 6
-7.2241778 4.4908047 -0.49575558 4.631576e+27 6
-7.2696614 4.4901609 -0.49798915 4.631576e+27 6
-7.3074732 4.4845505 -0.49969429 4.631576e+27 6
-7.3575101 4.4861965 -0.50223202 4.631576e+27 6
-7.4047785 4.4858727 -0.50457639 4.631576e+27 6
-7.4366107 4.4759884 -0.50586677 4.631576e+27 6
-7.5123048 4.4921837 -0.51013535 4.631576e+27 6
-7.5406747 4.4797745 -0.51118535 4.631576e+27 6
-7.5980248 4.4843488 -0.51419723 4.631576e+27 6
-7.6323977 4.4751062 -0.51565087 4.631576e+27 6
-7.7024288 4.4864678 -0.51950884 4.631576e+27 6
-7.7553306 4.4874778 -0.52220482 4.631576e+27 6
-7.8115611 4.4900942 -0.5251199 4.631576e+27 6
-7.8592591 4.4875069 -0.52745706 4.631576e+27 6
-7.9082236 4.4853735 -0.52987581 4.631576e+27 6
-7.9724364 4.4915557 -0.53331101 4.631576e+27 6
-8.031786 4.4946284 -0.53641474 4.631576e+27 6
-8.0766478 4.4892979 -0.53854692 4.631576e+27 6
-8.1318302 4.4894247 -0.54136378 4.631576e+27 6
-8.1880541 4.4898052 -0.54424542 4.631576e+27 6
-8.250309 4.4931464 -0.54752272 4.631576e+27 6
-8.3039961 4.4914861 -0.55022663 4.631576e+27 6
-8.4713526 4.5505824 -0.56044674 4.631576e+27 6
-8.5252867 4.5480285 -0.56314772 4.631576e+27 6
-8.5953026 4.5536923 -0.5669058 4.631576e+27 6
-8.6392269 4.5452099 -0.56893885 4.631576e+27 6
-8.7166748 4.5540152 -0.57317477 4.631576e+27 6
-8.7741203 4.5519724 -0.57608944 1.4286652e+32 6
-14.112148 7.2699142 -0.92519689 2.8572842e+32 6
-14.136236 7.2309842 -0.92540967 1.4286652e+32 6
-8.607688 4.3718462 -0.56266576 4.631576e+27 6
-8.6116915 4.3427868 -0.56210917 4.631576e+27 6
-8.6054535 4.3086615 -0.56089133 4.631576e+27 6
-8.6014442 4.2757773 -0.55982667 4.631576e+27 6
-8.6100445 4.2492337 -0.55958921 4.631576e+27 6
-8.5915928 4.2094612 -0.55760133 4.631576e+27 6
-8.6259136 4.1955748 -0.55904377 4.631576e+27 6
-8.6103716 4.1574545 -0.55725974 4.631576e+27 6
-8.6104965 4.1270385 -0.55649781 4.631576e+27 6
-8.599946 4.0916257 -0.55505359 4.631576e+27 6
-8.6062899 4.0643492 -0.55470675 4.631576e+27 6
-8.6042366 4.0331736 -0.5538249 4.631576e+27 6
-8.6014471 4.0017514 -0.5529027 4.631576e+27 6
-8.6045723 3.9731605 -0.55236727 4.631576e+27 6
-8.6064367 3.9440494 -0.55175692 4.631576e+27 6
-8.5984621 3.9105296 -0.55052286 4.631576e+27 6
-8.6057587 3.8840351 -0.55027294 4.631576e+27 6
-8.610199 3.8562884 -0.54984581 4.631576e+27 6
-8.6096306 3.8263617 -0.54910493 4.631576e+27 6
-8.6010952 3.7930007 -0.54786301 4.631576e+27 6
-8.6078196 3.7664506 -0.54759943 4.631576e+27 6
-8.6269808 3.7453279 -0.54813135 4.631576e+27 6
-8.6214485 3.7135119 -0.54709941 4.631576e+27 6
-8.6083622 3.6785781 -0.54559577 4.631576e+27 6
-8.6135693 3.6515601 -0.54525828 4.631576e+27 6
-8.614337 3.6227112 -0.54464549 4.631576e+27 6
-8.6058235 3.5900559 -0.54345262 4.631576e+27 6
-8.6244535 3.5687592 -0.54397905 4.631576e+27 6
-8.6217947 3.5386686 -0.54316753 4.631576e+27 6
-8.60812 3.5041802 -0.54166931 4.631576e+27 6
-8.6250648 3.4822128 -0.54210353 4.631576e+27 6
-8.6119976 3.4481821 -0.54065704 4.631576e+27 6
-8.6194305 3.4224448 -0.54050386 4.631576e+27 6
-8.604476 3.3879087 -0.53895324 4.631576e+27 6
-8.6162167 3.3639588 -0.5390808 4.631576e+27 6
-8.6037827 3.330637 -0.53770167 4.631576e+27 6
-8.6259079 3.310725 -0.53848749 4.631576e+27 6
-8.6115112 3.2768323 -0.53699851 4.631576e+27 6
-8.6003036 3.2442997 -0.53571594 4.631576e+27 6
-8.6327763 3.228236 -0.53715849 4.631576e+27 6
-8.620429 3.1954064 -0.53581649 4.631576e+27 6
-8.6176558 3.1662354 -0.53507626 4.631576e+27 6
-8.6251116 3.140867 -0.53497642 4.631576e+27 6
-8.6043396 3.1053209 -0.53313226 4.631576e+27 6
-8.618556 3.0824819 -0.53346193 4.631576e+27 6
-8.6184101 3.0545177 -0.53290725 4.631576e+27 6
-8.6183243 3.0266328 -0.53236187 4.631576e+27 6
-8.6140938 2.9973619 -0.53156614 4.631576e+27 6
-8.6181765 2.9710398 -0.53128892 4.631576e+27 6
-8.6166897 2.9428444 -0.53067356 4.631576e+27 6
-8.627903 2.9190094 -0.53084522 4.631576e+27 6
-8.6167564 2.8876634 -0.52964664 4.631576e+27 6
-8.6217308 2.8617926 -0.52944458 4.631576e+27 6
-8.6203318 2.8338473 -0.52885634 4.631576e+27 6
-8.6280937 2.8089449 -0.528835 4.631576e+27 6
-8.6221285 2.7796195 -0.52797747 4.631576e+27 6
-8.6163797 2.7504513 -0.52713919 4.631576e+27 6
-8.6161747 2.7231221 -0.5266456 4.631576e+27 6
-8.6137581 2.6951518 -0.52602226 4.631576e+27 6
-8.6160917 2.6687167 -0.52569413 4.631576e+27 6
-8.6242027 2.6440866 -0.52572316 4.631576e+27 6
-8.625783 2.6174715 -0.52535874 4.631576e+27 6
